# .PCD v0.7 - Point Cloud Data file format
VERSION 0.7
FIELDS x y z rgb
SIZE 4 4 4 4
TYPE F F F F
COUNT 1 1 1 1
WIDTH 1055
HEIGHT 1
VIEWPOINT 0 0 0 1 0 0 0
POINTS 1055
DATA ascii
0.66448599 1.0530031 0.8626157 2.2662103e-38
1.1557471 0.59525174 0.88074493 1.961422e-38
1.1553987 0.56096786 0.8797577 1.9246521e-38
0.632047 1.0524111 0.81385076 2.1924899e-38
0.66840345 1.0532656 0.81512231 2.201601e-38
1.1565012 0.59545422 0.83145618 1.9061046e-38
1.1565169 0.55976427 0.83199573 1.8693708e-38
0.63229775 1.0501176 0.7612592 2.0080628e-38
0.66589355 1.0522357 0.76351321 1.952853e-38
0.72213709 0.99571872 0.76277572 5.523089e-39
0.72507596 0.97419208 0.75527906 4.9699264e-39
0.9927761 0.70396477 0.76449794 3.6802652e-39
1.0252591 0.70146018 0.76601148 7.2733682e-39
1.0680423 0.69330269 0.76837802 1.8514379e-38
1.156348 0.59663785 0.77963835 1.8508232e-38
1.1581361 0.56050754 0.77806085 1.8324926e-38
0.63652503 1.0570384 0.71387941 1.455249e-38
0.67312092 1.0521144 0.7138899 1.3632697e-38
0.70446163 1.0442591 0.69722897 5.3386949e-39
0.73388195 0.9775914 0.72883856 5.1546666e-39
0.99192888 0.71278995 0.71861351 3.864655e-39
1.0299034 0.71026462 0.73220724 6.9053116e-39
1.0901573 0.66780275 0.73519403 1.6941994e-38
1.1063036 0.6565789 0.72508699 1.7401875e-38
1.1578151 0.59644771 0.72939652 1.7955777e-38
1.15767 0.55942762 0.7295692 1.8049058e-38
0.67284065 1.051319 0.68336421 3.0356146e-39
0.98711759 0.71619868 0.67995507 3.220729e-39
1.0270104 0.71501386 0.67818773 5.707853e-39
1.1078261 0.65360856 0.67806065 1.6849426e-38
1.1574593 0.59538007 0.67844963 1.7219654e-38
1.15799 0.55999416 0.68181175 1.7496963e-38
0.992091 0.71765178 0.62363851 2.5757183e-39
1.0281814 0.71608281 0.61379272 5.8018479e-39
1.1089735 0.65388036 0.63478518 1.6481366e-38
1.1563442 0.59813493 0.62858033 1.648317e-38
1.1566273 0.5599134 0.63009858 1.7036346e-38
0.98864394 0.71826476 0.57608891 1.5626426e-39
1.0283076 0.71414423 0.57210803 2.9430575e-39
1.15461 0.59508413 0.57931268 1.5563017e-38
1.1542339 0.55895698 0.57915658 1.5840324e-38
0.99982232 0.7110495 0.52651441 2.0214641e-39
1.0404421 0.7086339 0.52660346 6.6283561e-39
1.0725774 0.69926536 0.51352394 1.3904586e-38
1.1531179 0.59641081 0.52693826 1.4734701e-38
1.15504 0.55988294 0.53206646 1.4919815e-38
1.000162 0.71580523 0.47285816 1.8385134e-39
1.0425104 0.71256655 0.48092228 8.3797172e-39
1.1528441 0.59557337 0.47806475 1.4274446e-38
1.1555631 0.55726284 0.48189992 1.4459915e-38
0.99831384 0.71918452 0.42419946 1.5626454e-39
1.0406648 0.71767241 0.42688301 6.9989463e-39
1.1528902 0.59164315 0.42866665 1.3445407e-38
1.1549566 0.55731833 0.42781392 1.3539402e-38
1.0028672 0.72161275 0.3716583 1.103105e-39
1.0378726 0.71813565 0.37355009 6.1709793e-39
1.1549866 0.59408778 0.37877578 1.2617448e-38
1.1564393 0.55719042 0.37962016 1.2617811e-38
1.0027789 0.72069323 0.33681732 9.1943536e-40
1.040272 0.71855223 0.33081007 3.8664473e-39
1.15624 0.59724665 0.33685711 1.1972802e-38
1.1619285 0.55560678 0.3456414 1.2065716e-38
0.72941417 1.0403559 1.395535 2.295202e-38
0.75686193 1.0381752 1.399036 2.3044215e-38
1.1510119 0.67180955 1.4158849 1.7868606e-38
1.1568084 0.64419174 1.4110132 1.8422855e-38
0.71830213 1.0396967 1.365026 2.2950943e-38
0.76019973 1.0401145 1.3656425 2.3227527e-38
1.1471926 0.67355281 1.3749017 1.8143757e-38
1.1542103 0.63392216 1.377866 1.87902e-38
1.1602 0.60558379 1.3850894 1.8791275e-38
0.72040099 1.0396014 1.3144342 2.3226808e-38
0.76052141 1.0393442 1.3151212 2.3318645e-38
1.1495515 0.67379349 1.3254598 1.8419264e-38
1.1535267 0.63168567 1.3302971 1.8788761e-38
0.7197724 1.0383267 1.264403 2.3226449e-38
0.75990278 1.0397935 1.267059 2.3226448e-38
1.1486856 0.67291099 1.277455 1.8510737e-38
1.1535736 0.63484973 1.2793932 1.9064272e-38
0.72412401 1.0383013 1.2147293 2.3225367e-38
0.76198959 1.0394299 1.2168311 2.3225367e-38
1.1501361 0.6727857 1.2303058 1.9154668e-38
1.1542847 0.63442355 1.2289333 1.9431977e-38
0.72447652 1.0388384 1.1641111 2.3318285e-38
0.76558828 1.038669 1.1660875 2.3226807e-38
1.1523749 0.67426443 1.1806513 1.9061758e-38
1.1559317 0.63285142 1.179576 1.9799682e-38
0.72911984 1.0406215 1.1150551 2.3319004e-38
0.76381868 1.0397985 1.1139846 2.3319004e-38
1.1528788 0.6722517 1.1264329 1.9614211e-38
1.1573241 0.63523436 1.129418 2.0259584e-38
0.72673649 1.041409 1.0630581 2.3319004e-38
0.76602876 1.0414809 1.0658863 2.3319001e-38
1.1486084 0.67329806 1.0779165 2.0074111e-38
1.1562184 0.63351434 1.0788809 2.0628366e-38
0.72660416 1.0439461 1.0151402 2.3318282e-38
0.76827282 1.043677 1.0165827 2.3225723e-38
1.1472452 0.67009056 1.0279633 1.9521304e-38
1.1513034 0.62981552 1.0300905 2.099643e-38
0.70402515 1.0552684 0.94800401 2.2846849e-38
0.73224878 1.0495088 0.96392202 2.2111809e-38
0.76838619 1.0444882 0.97952855 2.340795e-38
1.144786 0.67146057 0.97868264 1.9613139e-38
1.1517195 0.63175511 0.97840625 2.0351063e-38
0.70100838 1.0561153 0.91371751 2.3307111e-38
0.73760313 1.0531071 0.91414833 2.3307111e-38
1.1458679 0.67462057 0.92762399 1.9980835e-38
1.1540916 0.63549721 0.9299385 1.9981919e-38
0.70233512 1.0560008 0.8705951 2.2937969e-38
0.74095654 1.0538651 0.86572659 2.284541e-38
1.1489676 0.67546755 0.88083506 1.9980829e-38
1.1553774 0.63389367 0.88023543 1.9889722e-38
0.70685631 1.0552195 0.81186509 2.1923809e-38
0.74180925 1.0545315 0.81576228 2.2015287e-38
1.150458 0.67632931 0.83009195 1.9611686e-38
1.1571047 0.63443816 0.82927936 1.9244711e-38
0.70571154 1.0557092 0.76084566 1.6396767e-38
0.7351113 1.0477835 0.76528198 8.0109389e-39
1.0927612 0.68623435 0.76746833 1.832565e-38
1.1442174 0.67267627 0.77735764 1.9059593e-38
1.1584944 0.63699627 0.77960062 1.8598985e-38
0.7107901 1.0546843 0.7281146 1.4462098e-38
0.73734516 1.0490783 0.72556996 9.210547e-39
1.0664538 0.71085358 0.73096418 1.1696952e-38
1.0870541 0.71111923 0.74185443 1.6488242e-38
1.1415923 0.65525073 0.72805566 1.8322748e-38
1.1585619 0.6327464 0.73132098 1.8691892e-38
1.0628165 0.72343993 0.67846721 1.0129272e-38
1.1442389 0.6563319 0.67820936 1.7310405e-38
1.1579223 0.63046151 0.67846024 1.7863219e-38
1.0722635 0.74012572 0.62771732 7.2733724e-39
1.1413784 0.65466279 0.62236249 1.6573922e-38
1.1574887 0.63126862 0.6295321 1.6850868e-38
1.0720985 0.71501625 0.56361634 1.0311125e-38
1.0980495 0.71673763 0.55277663 1.3716958e-38
1.149712 0.66876048 0.57658201 1.5653768e-38
1.1561847 0.63252807 0.57765973 1.5838878e-38
1.072372 0.7158944 0.54697067 9.2058611e-39
1.1120337 0.71267104 0.52516603 1.4180088e-38
1.1518617 0.67436898 0.52912295 1.4825092e-38
1.1560699 0.63252783 0.53018987 1.4917649e-38
1.0714728 0.71533036 0.47111389 1.2709292e-38
1.1507369 0.67272842 0.47932142 1.4088609e-38
1.1541425 0.63441527 0.47722006 1.4273004e-38
1.0665642 0.72152573 0.41594508 1.040873e-38
1.1516485 0.67215526 0.42809632 1.31681e-38
1.1548933 0.63244009 0.42810115 1.3261014e-38
1.0779042 0.72421134 0.35805717 1.1237406e-38
1.1424809 0.70446736 0.3817924 1.2799323e-38
1.1509449 0.66873229 0.37702978 1.2708203e-38
1.1535343 0.63212419 0.37785476 1.2525253e-38
1.0747113 0.72186977 0.31849858 7.9183635e-39
1.1443673 0.70264763 0.32906845 1.1603658e-38
1.1529768 0.66873997 0.32670403 1.2064275e-38
1.1549382 0.63200301 0.33221969 1.215647e-38
1.1452988 0.70325756 0.29520863 1.0867533e-38
1.1490667 0.67913693 0.30147317 1.1604374e-38
0.79344267 1.0389134 1.4061946 2.2859104e-38
0.82617104 1.0409508 1.4123331 2.313605e-38
1.1522495 0.70902181 1.4212476 1.8698731e-38
0.79453796 1.0387079 1.3678458 2.3134971e-38
0.82704967 1.0402547 1.3681808 2.3319364e-38
1.1509997 0.71102095 1.3800045 1.8974237e-38
0.79868215 1.0409069 1.317845 2.3319362e-38
0.82854152 1.0401311 1.3194871 2.3411559e-38
1.1515628 0.71007204 1.3310443 1.8972801e-38
0.79667962 1.0413237 1.2639495 2.3318642e-38
0.83003986 1.0400017 1.2707852 2.3226808e-38
1.1525327 0.71361202 1.2804416 1.924795e-38
0.79762775 1.0398667 1.2151673 2.3226085e-38
0.83278143 1.0405676 1.2198116 2.331756e-38
1.1523592 0.74410558 1.2056296 1.998444e-38
1.1528172 0.71144128 1.2300059 1.9246153e-38
0.80251449 1.0404098 1.1674988 2.3226807e-38
0.83307928 1.0402064 1.1663319 2.3226444e-38
1.1534618 0.711164 1.1785796 1.9245795e-38
0.80091155 1.0415231 1.1197162 2.3319361e-38
0.83598959 1.0409644 1.1153103 2.3319361e-38
1.1547713 0.74389738 1.1272297 1.9797895e-38
1.1546015 0.71120876 1.129306 1.9429108e-38
0.80409402 1.0433645 1.0689495 2.3319001e-38
0.83844572 1.0419894 1.0668256 2.331972e-38
1.1562034 0.74377364 1.0806799 1.9982279e-38
1.1535928 0.71322328 1.079891 1.9705335e-38
0.80357653 1.0445104 1.0165584 2.3317919e-38
0.84036463 1.0432431 1.0192786 2.3410473e-38
1.1533002 0.74493444 1.0251225 1.9981923e-38
1.1504533 0.71126288 1.0291567 1.9156505e-38
0.77399176 1.0566899 0.94952697 2.3491861e-38
0.80609155 1.0491167 0.96505272 2.2019247e-38
0.84072006 1.0451473 0.98158705 2.1378925e-38
1.1520348 0.73894733 0.97927082 1.9796815e-38
1.1443905 0.70661312 0.97653759 1.8878835e-38
0.77339232 1.0546135 0.91922057 2.3030881e-38
0.80921972 1.0537355 0.91850704 2.3214914e-38
0.8433587 1.048939 0.90103394 2.3398226e-38
1.1507555 0.73705465 0.93031615 1.9980121e-38
1.145332 0.70616198 0.92875665 1.9243632e-38
0.77465773 1.0545043 0.87809056 2.3121272e-38
0.81165874 1.0547987 0.8702479 2.3029078e-38
1.1524838 0.73968875 0.88002086 2.0164873e-38
1.1477686 0.70662791 0.88113356 1.9335109e-38
0.77706695 1.0550057 0.81637967 2.1922373e-38
0.81268477 1.0549959 0.81787282 2.210676e-38
1.153953 0.73966068 0.82919276 1.9888646e-38
1.1486158 0.70646453 0.8264668 1.9334746e-38
0.77757788 1.054252 0.78317529 4.7833715e-39
0.81400698 1.0524913 0.78039676 8.1949602e-39
1.1512306 0.74216187 0.79211676 1.9337278e-38
1.1442233 0.70433557 0.79214603 1.8874493e-38
0.86039293 1.0275091 0.721457 5.1539491e-39
1.1477327 0.73056591 0.72392386 1.7316558e-38
1.153898 0.71228147 0.71838933 1.6668292e-38
1.1497234 0.73641318 0.67810202 1.5380812e-38
1.1520218 0.70714933 0.67667025 1.5747059e-38
1.0765949 0.77100873 0.64111757 1.3775324e-39
1.1494622 0.73327994 0.62861896 1.4643605e-38
1.1498766 0.70365417 0.63278282 1.5009133e-38
1.1494199 0.73431754 0.58031589 1.4548515e-38
1.1488732 0.70441794 0.58002228 1.5099521e-38
1.1394341 0.72364682 0.5370515 1.4640343e-38
1.1479673 0.7049799 0.54848289 1.4915843e-38
1.1424559 0.72501403 0.47636366 1.3995698e-38
1.1505955 0.70475292 0.46305913 1.3536519e-38
1.1478804 0.73447168 0.42681745 1.3259937e-38
1.1520555 0.70462692 0.41560149 1.316774e-38
1.1475424 0.73904812 0.37728441 1.2707846e-38
1.1455249 0.73446149 0.33057478 1.1971722e-38
1.1347601 0.78580326 0.28290167 1.746315e-39
1.1422867 0.73608184 0.29492384 1.0223247e-38
0.89291781 1.0434653 1.4495013 2.3412991e-38
1.1584183 0.7883423 1.458347 2.350916e-38
0.8598786 1.0427399 1.4185401 2.3227883e-38
0.89502817 1.0447276 1.4200027 2.3320081e-38
1.158064 0.77379185 1.4292111 2.2582876e-38
1.1579694 0.74116784 1.4240514 1.9345539e-38
0.86094081 1.0420443 1.3686533 2.3411918e-38
0.8973701 1.0454885 1.3699489 2.3320443e-38
1.1593628 0.77553159 1.3789276 2.249032e-38
0.86324811 1.0428137 1.3195307 2.3320084e-38
0.89892495 1.0453541 1.3194067 2.3320441e-38
1.1590075 0.77552837 1.3287555 2.2396686e-38
1.1611485 0.7408933 1.3207099 1.989404e-38
0.86455488 1.0424337 1.2697871 2.3320081e-38
0.90047979 1.0452199 1.2688646 2.3411917e-38
1.1595007 0.77333182 1.2786645 2.2210488e-38
0.86608475 1.0422981 1.2201914 2.3226085e-38
0.90163928 1.0446383 1.218148 2.3411557e-38
1.1579546 0.7779085 1.2293409 2.2394162e-38
0.86859566 1.0422944 1.1689057 2.3319362e-38
0.9035899 1.0449516 1.1677806 2.3319718e-38
1.1591473 0.77259636 1.1794239 2.2206887e-38
0.86992735 1.0439909 1.1199511 2.3320083e-38
0.90316248 1.0460136 1.1214269 2.3319721e-38
1.1607494 0.78136766 1.1276993 2.2669671e-38
0.87288153 1.0444701 1.0720081 2.3320081e-38
0.90424007 1.0495347 1.0669011 2.3319359e-38
1.1531043 0.81178439 1.0854954 2.3507356e-38
1.1594448 0.77857506 1.0794003 2.2483834e-38
0.87343681 1.045072 1.0216132 2.3318998e-38
0.90449136 1.0453982 1.0157996 2.3410469e-38
1.1527588 0.81230938 1.0164123 2.3415885e-38
1.1555045 0.77986938 1.0312108 2.2761147e-38
0.87124556 1.0487685 0.97002697 2.2479145e-38
0.90784097 1.0501869 0.97592562 2.2390908e-38
1.1503093 0.81252772 0.98082185 2.3416245e-38
1.153518 0.77909976 0.98086727 2.2854064e-38
0.87274295 1.0524727 0.92366219 2.3307105e-38
1.152056 0.81090504 0.93459058 2.3417328e-38
1.1542611 0.77937156 0.93213135 2.2853708e-38
0.87477535 1.0541375 0.87305129 2.3121272e-38
1.1531672 0.81301677 0.88265145 2.341769e-38
1.1534014 0.77963632 0.88391674 2.2854788e-38
0.87588829 1.0548471 0.82399923 2.210712e-38
1.1537138 0.81218684 0.83210665 2.3416973e-38
1.1528622 0.77922952 0.83368373 2.2669321e-38
0.87668943 1.0542841 0.7841047 1.2063933e-38
1.1519268 0.81253272 0.79023868 1.400473e-38
1.1563061 0.78330582 0.79266709 1.8977878e-38
0.85305643 1.0683779 0.70837379 9.3949593e-39
0.87239784 1.0503007 0.70731032 8.474089e-39
1.1580282 0.76313335 0.70791304 1.4091155e-38
0.85351425 1.0683384 0.69349509 1.3449391e-38
0.88427299 1.0521742 0.6914714 1.0041053e-38
1.1393129 0.78702933 0.69367194 5.7996857e-39
1.1566719 0.77520293 0.68559229 1.2064653e-38
1.1475996 0.79152077 0.64326155 6.9063962e-39
1.1583672 0.77518356 0.63436973 1.252383e-38
1.1471285 0.78833133 0.57241875 7.1811698e-39
1.1599324 0.77481508 0.57497883 1.2984795e-38
1.1487362 0.78703111 0.42151198 8.289325e-39
1.1605153 0.77745593 0.42152154 1.252598e-38
1.1550072 0.78788197 0.35932395 9.3027511e-39
1.1576104 0.77416801 0.36389142 1.2434143e-38
1.153764 0.78740692 0.29244369 6.2592023e-39
1.1569974 0.77229065 0.30087751 1.0406913e-38
0.92869383 1.0449836 1.4563779 2.3320797e-38
0.96544975 1.0462526 1.4633164 2.3413356e-38
1.1629188 0.85260493 1.4687307 2.3509883e-38
1.1623731 0.82112527 1.4643786 2.3509883e-38
0.93038774 1.0455158 1.4207817 2.3320801e-38
0.96712285 1.045784 1.4238555 2.3321163e-38
1.1609163 0.84534526 1.4263405 2.3509884e-38
1.1618166 0.81227219 1.4267436 2.3509884e-38
0.93152833 1.0438809 1.3703692 2.3413e-38
0.96722978 1.0450063 1.3738949 2.3321883e-38
1.160809 0.84503317 1.3787261 2.3417687e-38
1.1619747 0.81512851 1.376744 2.3417689e-38
0.93402946 1.0458834 1.3217388 2.3412998e-38
0.96970052 1.0467302 1.3252602 2.341372e-38
1.1606315 0.84479511 1.3282739 2.3416966e-38
1.1611972 0.81117481 1.334952 2.3509521e-38
0.9354015 1.0455806 1.2719681 2.3412637e-38
0.97078127 1.0461165 1.2750975 2.3413356e-38
1.1605351 0.84740186 1.2789061 2.3415524e-38
1.1603384 0.80930543 1.2804241 2.332441e-38
0.93779284 1.0464137 1.2226313 2.3320083e-38
0.97353333 1.0463352 1.2231129 2.3413357e-38
1.1597606 0.84517163 1.2293638 2.3414445e-38
0.93747532 1.0453668 1.1726848 2.3320441e-38
0.97514266 1.0461963 1.1708009 2.3321162e-38
1.1605017 0.84538412 1.1802443 2.3414442e-38
1.1636264 0.80902159 1.1735498 2.3323687e-38
0.93720341 1.0471375 1.121022 2.33208e-38
0.9773683 1.0459403 1.1209005 2.3413359e-38
1.1602805 0.84673929 1.1297221 2.3322246e-38
1.1644093 0.80895406 1.1481035 2.3508079e-38
0.93737417 1.0480412 1.0712726 2.3320438e-38
0.97657257 1.0462167 1.0738348 2.3413354e-38
1.1587685 0.8464886 1.0787535 2.3414443e-38
0.94003171 1.047871 1.0200189 2.3319357e-38
0.97851127 1.0477133 1.0198547 2.3411915e-38
1.1523933 0.88479763 1.0252353 2.3416604e-38
1.1555076 0.84863949 1.0294976 2.3415524e-38
0.9418543 1.0525486 0.96748495 2.2205438e-38
0.98053592 1.0483187 0.97658837 2.2853688e-38
1.1538453 0.8846724 0.97804391 2.3416966e-38
1.1554912 0.85116273 0.97486639 2.3416967e-38
0.94541526 1.0574834 0.91853595 2.3307465e-38
1.1533892 0.88288146 0.92095834 2.3417328e-38
1.1548169 0.84915912 0.92599529 2.3417689e-38
0.94574219 1.0589069 0.87232083 2.3029794e-38
1.1509211 0.87993997 0.87813181 2.341733e-38
1.1524189 0.84561491 0.8795743 2.341769e-38
0.91047859 1.0619973 0.80340809 2.0725259e-38
0.94847476 1.0586702 0.82459641 2.2107117e-38
1.1518896 0.87843537 0.83289135 2.3415536e-38
1.1540945 0.84464145 0.83036262 2.3324418e-38
0.9107917 1.0619702 0.79322958 2.1088662e-38
0.9482975 1.0570121 0.78326368 9.9437947e-39
0.9905768 1.0409062 0.77338064 5.2454315e-39
1.1537023 0.88338685 0.78781295 9.5807827e-39
1.1552365 0.84922463 0.79251558 1.3821056e-38
0.91360998 1.0617269 0.70162302 9.7670111e-39
0.92497557 1.0591412 0.7013849 1.1979335e-38
0.92126387 1.0546461 0.69168907 9.8563116e-39
1.0026755 1.046617 1.4699366 2.3413356e-38
1.0340664 1.047595 1.4747251 2.3412636e-38
1.1637832 0.91732734 1.4801235 2.3417683e-38
1.1626548 0.88542771 1.4753652 2.3418045e-38
1.0060817 1.0474102 1.4244068 2.3413359e-38
1.0377064 1.0494043 1.4218457 2.341336e-38
1.1639354 0.91493535 1.4261081 2.3417686e-38
1.1623322 0.88310611 1.4295572 2.3509883e-38
1.0051129 1.045835 1.3739085 2.3322243e-38
1.0367253 1.0468345 1.3719385 2.3415161e-38
1.1625804 0.91389138 1.3770294 2.3417326e-38
1.1645253 0.88341916 1.378264 2.3417326e-38
1.0056831 1.0458282 1.3243314 2.3414799e-38
1.0397083 1.0481696 1.3240584 2.3414799e-38
1.1623745 0.91623801 1.326551 2.3416244e-38
1.1635617 0.88577718 1.3292606 2.332441e-38
1.0080163 1.0464478 1.2751831 2.3414079e-38
1.0414864 1.0432646 1.2745279 2.341336e-38
1.1616528 0.91551244 1.278322 2.3415525e-38
1.1614779 0.88515377 1.2807143 2.3414805e-38
1.0078465 1.0435674 1.2243207 2.3414439e-38
1.0415683 1.0443946 1.2295636 2.341372e-38
1.1597279 0.91700971 1.2298396 2.3415162e-38
1.1593118 0.8823064 1.2319072 2.3414803e-38
1.0090629 1.0442175 1.1751171 2.3322242e-38
1.0440583 1.0450643 1.1758884 2.3412638e-38
1.1597766 0.91390622 1.1799152 2.3322608e-38
1.1635184 0.88396627 1.1746472 2.3414083e-38
1.0151975 1.0475726 1.1247047 2.3413717e-38
1.0468574 1.048614 1.1243942 2.332008e-38
1.1612358 0.91299349 1.1291792 2.3415162e-38
1.1632015 0.88197047 1.1054751 2.3414442e-38
1.0148296 1.0473256 1.0718153 2.3412997e-38
1.0483549 1.0484848 1.0757202 2.3318999e-38
1.1576433 0.91774976 1.0775959 2.3415882e-38
1.0134256 1.0485011 1.0262142 2.3411917e-38
1.0490178 1.0473659 1.021454 2.3500511e-38
1.1520938 0.95083785 1.003384 2.3417324e-38
1.1567867 0.92062157 1.0285751 2.3416964e-38
1.0192646 1.0515721 0.97392535 2.3220674e-38
1.0511833 1.0482407 0.98378074 2.3406871e-38
1.1529257 0.95076603 0.97634292 2.332513e-38
1.1558357 0.91820019 0.97902489 2.3325131e-38
1.0168532 1.0574511 0.92226362 2.3308188e-38
1.1547558 0.95060819 0.91685265 2.3415889e-38
1.1546602 0.91802162 0.92719847 2.3417328e-38
1.0169749 1.0559531 0.87410599 2.2938324e-38
1.1559206 0.95050764 0.87899518 2.3322615e-38
1.1533133 0.91746861 0.87857014 2.3324055e-38
1.0200819 1.0574909 0.82608443 2.1739418e-38
1.1563203 0.9494918 0.83029109 2.3411931e-38
1.1549023 0.91812068 0.83071625 2.3413373e-38
1.0238767 1.0552895 0.78422046 1.0311864e-38
1.0590532 1.0414957 0.7730943 5.7049663e-39
1.156882 0.95213008 0.7842865 9.1187284e-39
1.1553236 0.92040253 0.78808743 1.0226155e-38
1.0662916 1.0492386 1.5074753 2.2766902e-38
1.0979528 1.0487624 1.511989 2.2213004e-38
1.1680553 0.99225271 1.523221 2.3509516e-38
1.164964 0.9646973 1.5110816 2.3417319e-38
1.068289 1.0490799 1.4764282 2.285874e-38
1.1014757 1.0508283 1.4743632 2.2212289e-38
1.1649317 0.98595667 1.4735591 2.3325489e-38
1.1669954 0.95706058 1.4813226 2.3417683e-38
1.0684825 1.0486916 1.4250115 2.3133891e-38
1.1050532 1.0525935 1.4253536 2.2856223e-38
1.1640306 0.97925073 1.4285418 2.3417324e-38
1.1653942 0.94808114 1.4327768 2.3417684e-38
1.0691084 1.0487703 1.3739314 2.3410478e-38
1.1049715 1.0511192 1.3799589 2.3224647e-38
1.1642785 0.98383045 1.3759161 2.3417326e-38
1.1634321 0.95227623 1.3805531 2.3417326e-38
1.071008 1.0467335 1.3237569 2.3409396e-38
1.1015534 1.0463777 1.3276739 2.3500514e-38
1.162571 0.98117745 1.3273166 2.3416245e-38
1.1626977 0.94759566 1.3320289 2.3416245e-38
1.0730127 1.0455344 1.2754931 2.3408314e-38
1.1038575 1.0469565 1.2780129 2.3317201e-38
1.1607782 0.97848988 1.2793807 2.3415884e-38
1.1582347 0.9472183 1.2797856 2.3507362e-38
1.0724875 1.0449916 1.2246325 2.331612e-38
1.1036041 1.0451638 1.2273889 2.3409396e-38
1.160005 0.98538911 1.2264562 2.3415884e-38
1.1585444 0.94833374 1.2272254 2.3507362e-38
1.0744865 1.0464468 1.1744667 2.3316477e-38
1.1083983 1.0480458 1.178471 2.3410839e-38
1.158949 0.98325408 1.1802597 2.3415525e-38
1.1600487 0.94820398 1.1783309 2.3415163e-38
1.0782458 1.0473148 1.1269574 2.3408673e-38
1.1132735 1.050995 1.1293271 2.3503033e-38
1.1625534 0.98395658 1.1285573 2.3416603e-38
1.1615529 0.9480741 1.129436 2.3415524e-38
1.0774974 1.0472877 1.0778801 2.3315755e-38
1.1171656 1.0530292 1.079703 2.3502675e-38
1.1573907 0.98262763 1.0783848 2.3417324e-38
1.0804566 1.0473182 1.024853 2.3313595e-38
1.1187125 1.0528957 1.0294203 2.3410116e-38
1.1567416 0.98473573 1.0291474 2.3417324e-38
1.0819755 1.0514214 0.97417653 2.3126678e-38
1.1202023 1.0527672 0.98099983 2.3408321e-38
1.1522497 0.98542082 0.97819823 2.3416245e-38
1.0823824 1.053524 0.92634922 2.3309632e-38
1.152698 1.020324 0.92420232 2.3413004e-38
1.154423 0.98264736 0.93020201 2.3414809e-38
1.0857373 1.0551138 0.87699509 2.2940486e-38
1.1443913 1.0234985 0.87583447 2.3317567e-38
1.1546227 0.98458904 0.87925482 2.3413008e-38
1.0894628 1.0570794 0.82748914 2.2110005e-38
1.152275 1.0171796 0.82934302 2.3131738e-38
1.156112 0.98443598 0.82983518 2.3317573e-38
1.0903747 1.0536522 0.78572994 1.0036359e-38
1.1353469 1.0274949 0.77539182 8.9321763e-39
1.155653 0.98475116 0.78689474 1.1330342e-38
1.1380199 1.0498415 1.519497 2.3044933e-38
1.1692886 1.024927 1.5230374 2.3416242e-38
1.1393719 1.0511481 1.481705 2.3229327e-38
1.1659031 1.024707 1.4758965 2.3416964e-38
1.1411209 1.0508285 1.4270406 2.3414083e-38
1.1659778 1.0208941 1.4293875 2.3417327e-38
1.1368103 1.0507601 1.3790635 2.3414083e-38
1.1671714 1.02719 1.382437 2.3417326e-38
1.1463213 1.0473568 1.3297527 2.3415163e-38
1.1651369 1.0183425 1.3331231 2.3416245e-38
1.1414748 1.0448606 1.2776297 2.3322248e-38
1.1631967 1.0176057 1.2796654 2.3415885e-38
1.1425297 1.0426913 1.2289548 2.3322606e-38
1.1615629 1.0186542 1.2371137 2.3323687e-38
1.1454666 1.0437889 1.1786553 2.3414803e-38
1.1629474 1.0186013 1.1690048 2.3416604e-38
1.1476511 1.0442125 1.1280788 2.3323328e-38
1.1613934 1.0190016 1.1270895 2.3324767e-38
1.1463029 1.0414982 1.0766917 2.3323328e-38
1.1622565 1.0189271 1.0990322 2.3509518e-38
1.1472468 1.0408471 1.0259316 2.322897e-38
1.1456846 1.0405335 0.97876811 2.3318289e-38
1.1423074 1.0470589 0.92998123 2.3316125e-38
1.1434227 1.0465796 0.88047671 2.2945185e-38
1.1434089 1.0465045 0.82874626 2.1930313e-38
1.144278 1.049286 0.7885378 1.1879911e-38
1.1281886 0.56990004 1.3185912 7.5567794e-39
1.1290017 0.51752901 1.3181723 9.3059755e-39
1.1289816 0.59450829 1.2664202 8.1074393e-39
1.1291524 0.56215656 1.2809319 9.2141428e-39
1.1301583 0.48959807 1.2857226 9.7673053e-39
1.1297022 0.61503762 1.2202592 8.4765735e-39
1.1296407 0.56957054 1.2362655 8.9375531e-39
1.1303527 0.61604035 1.1786935 8.845356e-39
1.1313401 0.57648134 1.1736256 9.2134253e-39
1.131598 0.61378855 1.1272274 9.3056167e-39
1.1326107 0.56865984 1.1223463 9.396739e-39
1.1338423 0.49097601 1.120574 1.0225426e-38
1.1356446 0.34578034 1.1395541 1.2712545e-38
1.1375208 0.22492395 1.1385877 1.5384423e-38
1.1328734 0.61184752 1.0810966 9.3970935e-39
1.1337146 0.5679149 1.0736555 9.6733244e-39
1.1349947 0.51571864 1.052291 1.1238133e-38
1.1344713 0.49121124 1.092378 1.1330326e-38
1.13335 0.62065017 1.0253031 9.5814847e-39
1.1345946 0.56746238 1.0137659 9.8566367e-39
1.1354185 0.53208488 1.0222098 1.0685317e-38
1.136847 0.46238557 1.0062107 1.0960099e-38
1.1369098 0.42729229 1.0274142 1.2344115e-38
1.1060464 0.1653693 1.0166397 1.603991e-38
1.1144114 0.02482407 1.0097842 1.7699072e-38
1.1340625 0.61240911 0.97817659 9.4892891e-39
1.1357814 0.56982446 0.9738664 9.7644383e-39
1.1367345 0.51926351 0.9723292 1.0684954e-38
1.1372718 0.48111585 0.97446984 1.1421439e-38
1.1383156 0.41242072 0.97492754 1.3171355e-38
1.1391332 0.37139678 0.96654284 1.2618553e-38
1.1353426 0.6138292 0.93005389 9.3970921e-39
1.1366369 0.5699802 0.93084645 9.7644383e-39
1.1378218 0.51758635 0.92501217 1.013214e-38
1.1385335 0.46436703 0.92968905 1.1697667e-38
1.1393344 0.40978116 0.9313277 1.2803651e-38
1.1402441 0.36776036 0.91951716 1.3079164e-38
1.1370769 0.61813068 0.88134712 9.0286711e-39
1.1379625 0.56689823 0.87691164 9.7640795e-39
1.1388332 0.52463478 0.87511778 1.0316172e-38
1.1396341 0.46720982 0.8786869 1.1236689e-38
1.1404417 0.415407 0.8781234 1.1881339e-38
1.1411512 0.37119815 0.8767342 1.2894053e-38
1.1420324 0.3360137 0.86152452 1.4001116e-38
1.1371609 0.61842138 0.82605368 8.4754945e-39
1.1393685 0.57165051 0.81909782 9.1194276e-39
1.1399751 0.52200162 0.82602483 1.0132496e-38
1.1404624 0.47039619 0.82549936 1.0776428e-38
1.1414307 0.41752604 0.83258927 1.1512914e-38
1.1423466 0.3681547 0.82552695 1.2433793e-38
1.1432019 0.32741222 0.81528533 1.3170636e-38
1.1390846 0.61100262 0.77512681 8.4754903e-39
1.1400405 0.57048881 0.7721132 8.4744169e-39
1.1407489 0.524692 0.77597648 9.3952914e-39
1.1415238 0.46816459 0.77398533 1.0407647e-38
1.1424329 0.41908464 0.76902533 1.0867905e-38
1.1434934 0.37062642 0.77273142 1.1604754e-38
1.1441553 0.32735315 0.77283293 1.2894051e-38
1.1452168 0.27642572 0.76034081 1.3078443e-38
1.1379961 0.6153515 0.72778404 8.1067022e-39
1.1410183 0.57057601 0.72648048 8.56733e-39
1.1418632 0.52176231 0.72420371 8.6584495e-39
1.1428759 0.4707312 0.7266863 9.578968e-39
1.1434805 0.41771176 0.72487694 1.0499838e-38
1.1444442 0.36894554 0.72574562 1.1051939e-38
1.1450571 0.32621595 0.7245025 1.1880975e-38
1.1464566 0.27418816 0.70661247 1.2156125e-38
1.1388289 0.61731273 0.67943352 7.5538913e-39
1.1417646 0.57080883 0.67819345 8.1070707e-39
1.1429291 0.52395761 0.67931122 8.1978272e-39
1.1441075 0.47028482 0.67718828 8.842119e-39
1.1448187 0.42084983 0.67931873 9.7629921e-39
1.1456513 0.3686251 0.67792273 1.0407287e-38
1.146403 0.32917613 0.67140794 1.0959384e-38
1.1466819 0.28102562 0.69189668 1.2063574e-38
1.1403192 0.61808896 0.62762815 6.9081688e-39
1.1425682 0.57095027 0.62875658 7.4609839e-39
1.1433269 0.52707893 0.62712812 7.7368519e-39
1.1447008 0.47621351 0.63244152 8.1974713e-39
1.1461498 0.41630223 0.62309659 9.1183416e-39
1.1467893 0.36934012 0.62671173 9.5786051e-39
1.1473804 0.32548976 0.63036323 1.0130701e-38
1.148387 0.27599066 0.61934733 1.0407651e-38
1.1406592 0.61902511 0.57613683 6.2635169e-39
1.1434937 0.57278872 0.57648045 7.0003658e-39
1.145231 0.5253666 0.57101035 7.2769513e-39
1.1464602 0.47080481 0.57199037 7.6450136e-39
1.1472007 0.41256988 0.57881391 8.2896599e-39
1.147774 0.37543896 0.57865119 8.5651692e-39
1.1486828 0.32533234 0.57240951 9.2098198e-39
1.1489741 0.28863609 0.58453661 9.7622817e-39
1.1417189 0.61830419 0.52574509 5.7110634e-39
1.1428475 0.57087857 0.52585053 6.5401094e-39
1.1457639 0.52235091 0.52453554 6.9078115e-39
1.147489 0.47816619 0.52110499 6.9989267e-39
1.1485602 0.41814333 0.51440585 7.4598993e-39
1.1491147 0.37175339 0.52142012 7.8279699e-39
1.1497817 0.32363939 0.52459878 8.4736953e-39
1.1505649 0.27958369 0.51981974 8.6577292e-39
1.1536102 0.085072063 0.51711327 1.0038885e-38
1.144311 0.61941725 0.47697508 5.1586084e-39
1.1430351 0.57082212 0.47790766 5.8951015e-39
1.1461158 0.52375013 0.47681153 6.2631623e-39
1.148327 0.47358185 0.47573012 6.4461159e-39
1.1494029 0.41800967 0.46703058 6.8148928e-39
1.1501704 0.37467188 0.47236201 7.3673491e-39
1.150746 0.33089879 0.47664788 7.7364918e-39
1.1514322 0.27527729 0.48410621 8.3811437e-39
1.1551888 0.05324699 0.46851933 9.3934992e-39
1.155314 0.045189902 0.4684549 1.0315455e-38
1.1453161 0.61750191 0.43060324 4.605799e-39
1.1439569 0.57083237 0.42765895 5.1582581e-39
1.1458582 0.52351379 0.42901883 5.4341233e-39
1.1482072 0.47361359 0.42817679 5.8018269e-39
1.1499008 0.42157429 0.42528489 6.3542748e-39
1.1510265 0.37301287 0.42643544 6.6301456e-39
1.1518675 0.32348442 0.4317404 7.3673477e-39
1.1522259 0.27904719 0.4461554 7.8290377e-39
1.1545161 0.16644955 0.42108521 7.6453863e-39
1.1560364 0.085979477 0.40835682 7.9198082e-39
1.1484355 0.61220372 0.38724455 4.0537042e-39
1.1454158 0.5723573 0.38773933 4.6058046e-39
1.1472554 0.52410382 0.38863885 4.9742256e-39
1.1482443 0.47379011 0.38755351 5.2497335e-39
1.1509062 0.42481425 0.38744947 5.8021856e-39
1.1514508 0.37832901 0.38732466 6.1695276e-39
1.152963 0.32470465 0.38206792 6.354279e-39
1.153859 0.25534645 0.38956985 7.6453849e-39
1.1566812 0.061909039 0.39607945 8.659527e-39
1.1867055 -0.41559568 1.346277 1.1426465e-38
1.1888708 -0.4912751 1.3461139 1.1243163e-38
1.1914495 -0.52978206 1.3466903 1.2724446e-38
1.1908282 -0.59609675 1.3454231 1.4667782e-38
1.1938801 -0.62255734 1.3463905 1.448267e-38
1.1436827 0.64396709 1.3264151 7.5560508e-39
1.1402438 0.61548615 1.3247762 8.2936186e-39
1.13736 0.56625956 1.3225006 8.4772952e-39
1.1369801 0.51454163 1.3212982 9.4903667e-39
1.1374886 0.46437991 1.3210561 9.5818463e-39
1.1412644 0.41688672 1.321978 1.0595272e-38
1.14423 0.3679148 1.3228167 1.0594555e-38
1.1450865 0.31515521 1.3219109 1.1331398e-38
1.1470846 0.26321021 1.3222425 1.1699818e-38
1.1486347 0.21443513 1.3222016 1.1883852e-38
1.1499223 0.16553475 1.322035 1.2621055e-38
1.1514739 0.11664104 1.3219818 1.2252993e-38
1.1526313 0.067625053 1.3217657 1.354265e-38
1.155439 0.017997421 1.3214438 1.400399e-38
1.1617156 -0.031080708 1.3206719 1.3358259e-38
1.1667733 -0.080064788 1.3215317 1.3911791e-38
1.1680932 -0.12965566 1.3213788 1.3912514e-38
1.1706446 -0.1835907 1.3216872 1.3359699e-38
1.1725037 -0.23496564 1.3206785 1.2807246e-38
1.1751541 -0.28417957 1.3231019 1.2807965e-38
1.1764481 -0.3341873 1.320821 1.2254795e-38
1.1782452 -0.38419315 1.322325 1.1978566e-38
1.181479 -0.43638796 1.3230352 1.1610865e-38
1.186771 -0.48159829 1.3194623 1.1150251e-38
1.185213 -0.53521407 1.321077 1.3925525e-38
1.1872635 -0.5820573 1.321107 1.5219521e-38
1.192027 -0.63563299 1.3190283 1.4667067e-38
1.1406242 0.64197648 1.2798024 7.8315572e-39
1.1377704 0.616014 1.2781694 8.3858156e-39
1.1361024 0.5678972 1.2767181 8.8453602e-39
1.136728 0.51640505 1.2763951 9.4896521e-39
1.1404973 0.46560895 1.2772586 9.9491925e-39
1.1423496 0.41727123 1.2773097 1.0687111e-38
1.1449476 0.36690223 1.2775083 1.1239205e-38
1.1462668 0.31442025 1.2774823 1.179166e-38
1.1482608 0.26363739 1.2774583 1.2067888e-38
1.1475924 0.21438694 1.2765123 1.2435954e-38
1.1500007 0.16576117 1.2767661 1.3081322e-38
1.1512002 0.11686036 1.2765535 1.3450105e-38
1.1524012 0.067909703 1.2763327 1.4740124e-38
1.1555042 0.01933784 1.273367 1.4740486e-38
1.1615968 -0.029530983 1.2710584 1.4279507e-38
1.1683191 -0.079673782 1.2721827 1.464865e-38
1.1695961 -0.13078509 1.2710873 1.4188033e-38
1.1709058 -0.18430571 1.2725381 1.5018512e-38
1.173629 -0.23715006 1.2720081 1.3543742e-38
1.1746216 -0.28689092 1.2716992 1.3267874e-38
1.1769816 -0.3344309 1.2727202 1.3083844e-38
1.1790016 -0.3842555 1.2713968 1.2623582e-38
1.1808108 -0.43473899 1.2709726 1.1978934e-38
1.1850301 -0.48269191 1.2727405 1.161088e-38
1.1836839 -0.53347838 1.2717602 1.4201399e-38
1.1887326 -0.58378088 1.2698791 1.5496113e-38
1.1953691 -0.63792747 1.2637972 1.512805e-38
1.1406049 0.64183277 1.2510374 7.92412e-39
1.1371651 0.61752111 1.2298862 8.569488e-39
1.1377118 0.56393421 1.2251891 9.0293914e-39
1.1391735 0.51476777 1.2282056 9.7655215e-39
1.14279 0.46653891 1.2289342 1.0041388e-38
1.1436929 0.41812861 1.2278281 1.1146651e-38
1.1455119 0.36934528 1.2285836 1.160727e-38
1.1461139 0.31634828 1.2280904 1.2251922e-38
1.1466056 0.26335552 1.2275473 1.2712543e-38
1.1475837 0.21456522 1.2272317 1.2896218e-38
1.1495521 0.16591451 1.227271 1.3265001e-38
1.1530522 0.11655524 1.2249483 1.4094403e-38
1.1535538 0.068351835 1.2232443 1.5016002e-38
1.1550499 0.019622762 1.2205108 1.5108558e-38
1.1621468 -0.02965815 1.2207885 1.5661737e-38
1.1643701 -0.081240244 1.2213808 1.5293313e-38
1.1687375 -0.13279484 1.2205141 1.5294035e-38
1.1709605 -0.18440835 1.2222744 1.6032317e-38
1.1742951 -0.23666048 1.2221773 1.4004369e-38
1.1756266 -0.28585061 1.2213798 1.3820336e-38
1.1768123 -0.33487684 1.2217381 1.3360078e-38
1.178321 -0.38542131 1.2221425 1.3360435e-38
1.1803738 -0.43638653 1.2216072 1.1886387e-38
1.1833715 -0.48646292 1.2223215 1.2256977e-38
1.1826022 -0.53546035 1.2206991 1.503153e-38
1.1883265 -0.58227432 1.2168118 1.5957096e-38
1.1968358 -0.63646662 1.2180214 1.5312448e-38
1.1353574 0.61746848 1.1788611 8.7531618e-39
1.1385864 0.56190062 1.1804144 9.4892947e-39
1.141281 0.51638633 1.179969 9.9499127e-39
1.1410623 0.46530733 1.1777241 1.0685318e-38
1.144783 0.41775006 1.1784256 1.1514718e-38
1.1445814 0.36916479 1.1783284 1.188314e-38
1.1443299 0.31774879 1.1773522 1.2527795e-38
1.1456279 0.26527944 1.1776807 1.3633786e-38
1.1470228 0.21462838 1.1778913 1.3540873e-38
1.1496266 0.16568029 1.1745586 1.4001134e-38
1.1522529 0.11789419 1.1721525 1.56621e-38
1.1534458 0.068691887 1.1697839 1.5477351e-38
1.1553087 0.019794069 1.169727 1.6952491e-38
1.1605965 -0.029234841 1.1706954 1.6860654e-38
1.1622914 -0.082549997 1.1705319 1.7229801e-38
1.166784 -0.13622019 1.1712103 1.6031254e-38
1.1694314 -0.18585727 1.1713735 1.557135e-38
1.172525 -0.23572643 1.1716489 1.5387322e-38
1.1760633 -0.28589272 1.172083 1.4188773e-38
1.177838 -0.33522734 1.1718736 1.3267169e-38
1.1796564 -0.38506737 1.1720135 1.3636667e-38
1.1813735 -0.43592805 1.1717818 1.2070061e-38
1.182937 -0.4841626 1.172017 1.28098e-38
1.1823951 -0.53302658 1.1705383 1.5399953e-38
1.1875296 -0.58299088 1.1683986 1.6324803e-38
1.1977669 -0.63347507 1.1657578 1.577307e-38
1.1355757 0.62013561 1.1333326 8.7528073e-39
1.1386433 0.56626385 1.1325248 9.3970991e-39
1.1408867 0.5168317 1.1277902 1.0409809e-38
1.1428221 0.46643078 1.1266791 1.0869351e-38
1.1445976 0.41821876 1.1259569 1.1790584e-38
1.1432266 0.36904046 1.12458 1.2343402e-38
1.1431798 0.32016388 1.1263009 1.2988415e-38
1.1452354 0.26811254 1.1260515 1.3817104e-38
1.1455168 0.21489473 1.124525 1.4277729e-38
1.1500366 0.16703759 1.121628 1.5660303e-38
1.1530484 0.11850136 1.1218207 1.5476635e-38
1.1537646 0.069038302 1.1206422 1.6490794e-38
1.1548553 0.0201381 1.1203463 1.7690072e-38
1.1602566 -0.028809093 1.1211487 1.8336883e-38
1.1621568 -0.082072042 1.1209986 1.8337606e-38
1.1643435 -0.13546699 1.1209255 1.62171e-38
1.1676548 -0.18503591 1.1211898 1.7784788e-38
1.173751 -0.23475815 1.1222745 1.6678075e-38
1.1776989 -0.28421697 1.1228093 1.5941223e-38
1.1788155 -0.33043823 1.1219063 1.5388045e-38
1.1821544 -0.38170868 1.1225482 1.3821071e-38
1.1830395 -0.43569648 1.1221303 1.3176414e-38
1.1851568 -0.48416552 1.1217148 1.3455898e-38
1.1830806 -0.53245008 1.1213013 1.5676546e-38
1.1877488 -0.58129758 1.1200857 1.6785786e-38
1.1989533 -0.63262206 1.11667 1.6049301e-38
1.1444184 0.64325911 1.0800939 7.7383008e-39
1.1387187 0.62412846 1.0737377 9.5818435e-39
1.1391308 0.56712079 1.077371 9.6729643e-39
1.142231 0.51725399 1.0760278 1.0685676e-38
1.1433346 0.46702138 1.0752743 1.1145216e-38
1.1447952 0.41818467 1.0735483 1.2251921e-38
1.1454421 0.36942565 1.0731115 1.280438e-38
1.1464659 0.31846347 1.075079 1.3724902e-38
1.1480784 0.26761985 1.0738083 1.4553949e-38
1.1501523 0.21715048 1.0736867 1.5106774e-38
1.152675 0.16715369 1.0723774 1.6766658e-38
1.1543175 0.11837141 1.0721778 1.7044331e-38
1.1543027 0.069411069 1.0716261 1.7506399e-38
1.1561676 0.020562392 1.071472 1.8520557e-38
1.1602465 -0.02839949 1.0717877 1.8797867e-38
1.1634432 -0.081666723 1.0718738 1.9906738e-38
1.165663 -0.13507295 1.0717479 1.7231623e-38
1.1695318 -0.1847388 1.0719999 1.7970264e-38
1.1751785 -0.23498131 1.0726691 1.7139783e-38
1.1786116 -0.28512996 1.0728387 1.6955745e-38
1.1804149 -0.33386451 1.0724275 1.5664639e-38
1.1825591 -0.38370761 1.0727918 1.4558999e-38
1.183706 -0.43513009 1.0722339 1.3084225e-38
1.1858145 -0.48545095 1.0721185 1.3455547e-38
1.1822447 -0.53343093 1.0708162 1.6230087e-38
1.1895061 -0.58234811 1.0708545 1.7062374e-38
1.2002144 -0.63151443 1.0644428 1.6325891e-38
1.1387554 0.61183083 1.0270172 9.3048979e-39
1.1399975 0.571702 1.0350801 1.0041388e-38
1.1415814 0.51704788 1.0253396 1.0777513e-38
1.1425189 0.46630448 1.0263615 1.1421443e-38
1.1438742 0.41746682 1.0243624 1.2343038e-38
1.1454273 0.3694416 1.0242304 1.298805e-38
1.1482728 0.31856713 1.0233588 1.3724181e-38
1.151323 0.26595375 1.0249945 1.3816381e-38
1.153514 0.21816817 1.0248712 1.465084e-38
1.1492064 0.16310689 1.0251991 1.5296941e-38
1.1556298 0.11880273 1.0233067 1.7781902e-38
1.1553931 0.069826692 1.0227487 1.6405455e-38
1.1509523 0.017588869 1.0279274 1.7600401e-38
1.1621474 -0.030182548 1.0239527 1.7691875e-38
1.1637802 -0.081225939 1.0225914 2.0368435e-38
1.166096 -0.13460247 1.0224116 1.8523439e-38
1.1680799 -0.18395983 1.0222433 1.9353923e-38
1.1723979 -0.2338682 1.0224571 1.7601487e-38
1.1763871 -0.28399521 1.0226083 1.6956107e-38
1.1801299 -0.33371595 1.0228363 1.566464e-38
1.181908 -0.38349354 1.0223839 1.5296573e-38
1.1827015 -0.43398431 1.0220827 1.3268625e-38
1.1861469 -0.48474464 1.0221461 1.1152105e-38
1.1820152 -0.53244829 1.0209283 1.6598871e-38
1.1871489 -0.5797537 1.0205885 1.7338245e-38
1.1983639 -0.63091141 1.0184947 1.6602119e-38
1.1464158 0.64400619 0.99055201 8.7517339e-39
1.1395694 0.62267911 0.9745751 9.2127036e-39
1.1397294 0.56667793 0.98476619 9.8566339e-39
1.1408961 0.52073032 0.97904652 1.0869344e-38
1.1419914 0.46514246 0.97568285 1.1513637e-38
1.143656 0.42180136 0.97570771 1.2342676e-38
1.1452023 0.36890459 0.9764111 1.2895494e-38
1.1493797 0.31773296 0.97543019 1.4092602e-38
1.152565 0.26553658 0.9753111 1.4462116e-38
1.1552014 0.21707545 0.97518057 1.4186259e-38
1.1559615 0.1681574 0.97476131 1.5108223e-38
1.1578271 0.11936232 0.97453052 1.805885e-38
1.1569266 0.07025931 0.97392058 1.6402217e-38
1.1552494 0.021276828 0.97319204 1.8061028e-38
1.1609943 -0.02757002 0.9734804 1.9075898e-38
1.1633558 -0.080742449 0.97325754 2.0460269e-38
1.1655284 -0.13403462 0.97299707 2.0552828e-38
1.1674017 -0.18331192 0.97275293 1.8985501e-38
1.1706098 -0.23292726 0.97269368 1.8246495e-38
1.1737111 -0.28274417 0.97258842 1.7232336e-38
1.1783717 -0.33313379 0.97270036 1.5756836e-38
1.1815912 -0.38343072 0.97259432 1.5664995e-38
1.1841444 -0.43369055 0.97242606 1.3729601e-38
1.1854742 -0.48362607 0.97209704 1.2718712e-38
1.1813371 -0.5312441 0.97107464 1.6783261e-38
1.1874272 -0.58004302 0.97206682 1.7522636e-38
1.1973485 -0.62945759 0.97095847 1.6786153e-38
1.140862 0.62646264 0.91887528 9.3041762e-39
1.1411937 0.57050675 0.92579329 9.8566353e-39
1.1423839 0.5221439 0.9287523 1.0684955e-38
1.1437917 0.47180638 0.92533195 1.123669e-38
1.143953 0.42058715 0.92495883 1.225012e-38
1.1448313 0.36932403 0.9280135 1.2802578e-38
1.1485697 0.31817079 0.92600214 1.3723458e-38
1.1525553 0.26643094 0.92693037 1.5013844e-38
1.1554081 0.2173031 0.92616558 1.529008e-38
1.1579375 0.16871411 0.92594206 1.6765936e-38
1.1596947 0.11987282 0.92563915 1.8519101e-38
1.1571307 0.07059174 0.9249531 1.8242522e-38
1.1573348 0.021704655 0.92451197 1.9812019e-38
1.1613498 -0.027928803 0.92428786 1.981274e-38
1.1635177 -0.080880061 0.92419046 2.0090406e-38
1.1649584 -0.13345471 0.9237259 1.9722344e-38
1.1677206 -0.18279792 0.92351353 2.0276239e-38
1.1698185 -0.23218535 0.92322671 1.8061379e-38
1.1722517 -0.28175923 0.92299056 1.7785506e-38
1.1768044 -0.33202818 0.92291647 1.640221e-38
1.1814723 -0.38264796 0.92286462 1.5664635e-38
1.1845844 -0.4330419 0.92264706 1.46512e-38
1.1859137 -0.48294994 0.92230433 1.4838125e-38
1.1842288 -0.53158593 0.92168373 1.6875455e-38
1.1886973 -0.57968163 0.92096883 1.7614832e-38
1.1978911 -0.62938279 0.92259967 1.687871e-38
1.1424189 0.61829305 0.87715238 9.0279522e-39
1.1433743 0.57513976 0.88510686 9.6726e-39
1.1429532 0.51910478 0.88074893 1.0500561e-38
1.143544 0.47051966 0.88051414 1.1328884e-38
1.1443369 0.42112023 0.87895125 1.142072e-38
1.1451681 0.36669412 0.8791306 1.3447946e-38
1.1499206 0.31763273 0.87921411 1.4091876e-38
1.1543136 0.26702166 0.87707818 1.4736891e-38
1.1563882 0.21768135 0.87727445 1.5566662e-38
1.1586977 0.16906171 0.87697113 1.6857765e-38
1.1605659 0.12024887 0.87662947 1.7965201e-38
1.1573337 0.070936158 0.87604272 1.8241434e-38
1.1584249 0.022109076 0.8756687 1.9533623e-38
1.1619594 -0.026749451 0.87541616 1.9073726e-38
1.1641165 -0.079842433 0.87504739 1.9904566e-38
1.1663862 -0.13308656 0.87468445 1.9628344e-38
1.1673708 -0.18218948 0.874295 1.9260278e-38
1.1701363 -0.23163247 0.87399775 1.833724e-38
1.172794 -0.28122982 0.87369454 1.7600393e-38
1.1794682 -0.33202976 0.87354225 1.6678075e-38
1.1826905 -0.38226819 0.87326145 1.5387685e-38
1.1852465 -0.43247551 0.87294239 1.4098024e-38
1.1869111 -0.48249403 0.87258631 1.4284228e-38
1.1854465 -0.53121501 0.87210858 1.6783621e-38
1.1873095 -0.57812744 0.87245107 1.7522638e-38
1.1977698 -0.62830806 0.87122387 1.6786517e-38
1.1441215 0.61834013 0.83293223 8.4751358e-39
1.1430421 0.57050443 0.83449638 9.48785e-39
1.1444544 0.51970327 0.82954913 1.013142e-38
1.1455297 0.45603254 0.82420683 1.0868266e-38
1.1465371 0.41722563 0.81098932 1.1051574e-38
1.146304 0.37100989 0.82555133 1.2433435e-38
1.1490846 0.3187522 0.82959664 1.353906e-38
1.1531775 0.27016473 0.82474577 1.4275909e-38
1.1568562 0.21847664 0.82493305 1.5013121e-38
1.1586354 0.16876675 0.82581687 1.6026914e-38
1.1595826 0.11960096 0.82477188 1.7134713e-38
1.1590526 0.071417369 0.82315791 1.7871922e-38
1.1592395 0.022545572 0.82276618 1.7872651e-38
1.162919 -0.027956791 0.82603723 1.8057041e-38
1.1651639 -0.081468806 0.82500207 1.8242878e-38
1.1673694 -0.13266639 0.82562298 1.7966652e-38
1.1694678 -0.18191583 0.8252297 1.842907e-38
1.171456 -0.2312596 0.8248387 1.7136888e-38
1.174785 -0.28102171 0.82444483 1.6861742e-38
1.1812414 -0.3317793 0.82405746 1.5202216e-38
1.1850247 -0.38221455 0.8236748 1.5479879e-38
1.186913 -0.43225479 0.82327813 1.3820712e-38
1.1888028 -0.48238343 0.82288241 1.3454102e-38
1.1863297 -0.53071088 0.82249224 1.6690708e-38
1.1877313 -0.57659435 0.82212496 1.7430445e-38
1.1984959 -0.62712395 0.82176125 1.6602129e-38
1.1509557 0.64570415 0.78704774 7.4595475e-39
1.1454442 0.63426751 0.77300572 8.014515e-39
1.1447378 0.57135612 0.78805947 8.8431966e-39
1.1457125 0.51337957 0.76940298 9.4871311e-39
1.1455286 0.47939402 0.78599507 9.9466715e-39
1.1464295 0.41467434 0.79009724 1.1143771e-38
1.14754 0.3653937 0.77430379 1.1604395e-38
1.1489339 0.3176401 0.7733596 1.2617102e-38
1.1526703 0.2693513 0.77183551 1.3446144e-38
1.157207 0.21768899 0.77222216 1.3906406e-38
1.1584623 0.1700125 0.7732414 1.5288986e-38
1.1605952 0.12169611 0.77210259 1.4645421e-38
1.1596936 0.071810946 0.77026397 1.7042153e-38
1.1598955 0.022957496 0.76990193 1.6949603e-38
1.1648092 -0.026391588 0.77280086 1.7503503e-38
1.1663196 -0.07881435 0.77243549 1.7504224e-38
1.1694149 -0.13230777 0.7724216 1.7135441e-38
1.1718013 -0.18162853 0.77196246 1.7966282e-38
1.1742864 -0.23111261 0.77148724 1.6123086e-38
1.1773885 -0.28057608 0.77289855 1.5846498e-38
1.1816196 -0.33029553 0.77307326 1.474123e-38
1.1855739 -0.38164258 0.77404171 1.4096218e-38
1.1884689 -0.43199804 0.77357674 1.354448e-38
1.1893525 -0.4817555 0.77317184 1.2900562e-38
1.1881086 -0.5305962 0.77285522 1.650596e-38
1.1902159 -0.57750612 0.77074891 1.6970191e-38
1.2014588 -0.62884349 0.77161014 1.6233709e-38
1.1447432 0.63903123 0.71181524 7.8293922e-39
1.1459383 0.52698451 0.73517305 8.8421232e-39
1.1471763 0.46839309 0.72007513 9.5786065e-39
1.1477531 0.41788006 0.72891074 1.0315087e-38
1.148664 0.3732233 0.71885204 1.0776428e-38
1.1496798 0.31574091 0.72403419 1.1696225e-38
1.1517289 0.27165064 0.72602659 1.2616743e-38
1.1566855 0.22050677 0.72185522 1.3446144e-38
1.1591556 0.16985384 0.7222302 1.4275909e-38
1.1610254 0.12117469 0.72173852 1.4184798e-38
1.1610049 0.072244264 0.72142875 1.5014563e-38
1.1610955 0.023374181 0.72109056 1.6027999e-38
1.1647915 -0.02694319 0.71958482 1.630423e-38
1.1666765 -0.079741009 0.72073954 1.5843609e-38
1.1707448 -0.13187462 0.71922165 1.6213113e-38
1.1730694 -0.18118902 0.71869302 1.6490779e-38
1.1768483 -0.23090424 0.71804106 1.4831619e-38
1.1812655 -0.28136605 0.71953374 1.4832697e-38
1.1836727 -0.331754 0.71965867 1.4095855e-38
1.1868404 -0.38113531 0.72220492 1.3635234e-38
1.1887941 -0.43130684 0.72392505 1.2161546e-38
1.1899015 -0.48112005 0.7234996 1.225555e-38
1.1872871 -0.52978283 0.71987009 1.6137901e-38
1.1898873 -0.57793546 0.7210077 1.6417742e-38
1.2014676 -0.62849993 0.72043651 1.586565e-38
1.1459036 0.64217591 0.65794295 7.1829536e-39
1.1474648 0.5193001 0.67239457 8.1978314e-39
1.148061 0.46814314 0.68080503 8.6584438e-39
1.1491243 0.41346446 0.67081314 1.0039222e-38
1.1497073 0.37523994 0.6709668 9.9466715e-39
1.1508956 0.31936988 0.67761558 1.1143774e-38
1.1527177 0.27110344 0.67371684 1.1695507e-38
1.1569568 0.22004659 0.67457575 1.2524909e-38
1.1614677 0.17045951 0.67326504 1.3170282e-38
1.1623373 0.12160682 0.67286038 1.2801498e-38
1.1599787 0.072481282 0.67288077 1.4184079e-38
1.1622955 0.023778412 0.67227763 1.4737256e-38
1.1668906 -0.025815235 0.67105699 1.5382262e-38
1.1688706 -0.078749456 0.67111063 1.4829811e-38
1.1717287 -0.13145734 0.67013907 1.4830171e-38
1.1742781 -0.18079486 0.66950369 1.483125e-38
1.1770539 -0.23033072 0.66884816 1.3540873e-38
1.1818453 -0.28047958 0.66793209 1.3450115e-38
1.1855233 -0.33069256 0.66715765 1.2805472e-38
1.1877259 -0.38080156 0.6687997 1.280583e-38
1.1900109 -0.43086919 0.67010838 1.1885678e-38
1.1910703 -0.48065311 0.66967553 1.1610178e-38
1.1868018 -0.52754992 0.66659909 1.5308861e-38
1.1900898 -0.57560104 0.66950482 1.5957127e-38
1.2010709 -0.6260522 0.67157352 1.549687e-38
1.146723 0.63028425 0.62955171 6.6312218e-39
1.1480604 0.56166178 0.61687595 7.645724e-39
1.1486057 0.50900722 0.62858182 7.9216019e-39
1.1494176 0.46255144 0.62416798 8.3815024e-39
1.1500157 0.42415011 0.63748658 9.2105386e-39
1.1505796 0.37454966 0.63255936 9.5782506e-39
1.1516725 0.31730774 0.6230064 1.031545e-38
1.1543268 0.26967207 0.6293202 1.0774633e-38
1.1570154 0.21951753 0.62527561 1.1696228e-38
1.1624469 0.17085689 0.62441689 1.2710017e-38
1.1629823 0.12195376 0.62405688 1.1880623e-38
1.1608433 0.072862647 0.62416726 1.3815652e-38
1.1616002 0.024112608 0.62377977 1.390857e-38
1.1663924 -0.026825961 0.62300676 1.4092599e-38
1.1694924 -0.079610765 0.62155664 1.3817094e-38
1.171707 -0.13093768 0.62122065 1.409368e-38
1.1745924 -0.18028647 0.62046528 1.372526e-38
1.1777055 -0.22985514 0.61965764 1.2896583e-38
1.1814927 -0.27974674 0.61875653 1.271291e-38
1.1839393 -0.32957265 0.61808836 1.2344852e-38
1.1863887 -0.3795135 0.61738193 1.1792036e-38
1.1892884 -0.42976052 0.61662728 1.0870805e-38
1.1911808 -0.47979635 0.61603504 1.0964807e-38
1.1881325 -0.52778584 0.61629248 1.4848606e-38
1.191673 -0.57685751 0.61905444 1.5404674e-38
1.2044096 -0.62806517 0.62142521 1.5036251e-38
1.1491426 0.5620665 0.56837142 6.8152585e-39
1.1494834 0.51340157 0.58646137 7.7372092e-39
1.1506997 0.47031707 0.58082557 7.643936e-39
1.1512581 0.42926347 0.57763791 8.0137905e-39
1.1521724 0.36759296 0.57570773 8.7495633e-39
1.1537522 0.3231276 0.57833904 9.5786051e-39
1.1541493 0.27057487 0.578008 1.0038866e-38
1.1574867 0.2218716 0.57626528 1.0498766e-38
1.1619771 0.17099515 0.5758847 1.1512555e-38
1.1635147 0.12230001 0.57532501 1.0774993e-38
1.1600345 0.073115908 0.57583773 1.2618188e-38
1.1605669 0.024426125 0.57549417 1.2710744e-38
1.1655244 -0.026412467 0.57450867 1.2802938e-38
1.1708949 -0.079210527 0.5724898 1.2895494e-38
1.1733606 -0.13057676 0.57202655 1.2804021e-38
1.1762486 -0.17995057 0.57119226 1.280474e-38
1.1791397 -0.22950275 0.57035041 1.2067181e-38
1.180689 -0.27893102 0.56978327 1.2160094e-38
1.1854913 -0.32926786 0.56852061 1.1423253e-38
1.1861472 -0.37871638 0.56816012 1.1147741e-38
1.187139 -0.42822704 0.5677129 1.0594936e-38
1.1897045 -0.47840187 0.56694376 1.0227961e-38
1.1901357 -0.52775878 0.56660891 1.4388346e-38
1.1934338 -0.57742095 0.56957138 1.4944414e-38
1.2032045 -0.62716943 0.57167488 1.4760381e-38
1.1484283 0.64312023 0.54476589 5.9869188e-39
1.1504662 0.52352768 0.53572476 7.1843984e-39
1.1521382 0.4675822 0.52799928 7.1833194e-39
1.1533506 0.4234753 0.53266287 7.5524564e-39
1.1533018 0.37175497 0.52635068 8.1045526e-39
1.1544731 0.32232764 0.5232715 8.657369e-39
1.1557902 0.27317062 0.52749908 9.1179885e-39
