# .PCD v0.7 - Point Cloud Data file format
VERSION 0.7
FIELDS x y z rgb
SIZE 4 4 4 4
TYPE F F F F
COUNT 1 1 1 1
WIDTH 1156
HEIGHT 1
VIEWPOINT 0 0 0 1 0 0 0
POINTS 1156
DATA ascii
-1.4409969 0.23354624 0.81878424 1.2441399e-38
-1.433728 0.26270902 0.82041478 1.2074414e-38
-1.4315703 0.29865193 0.8221904 1.1149208e-38
-1.4021816 0.41928172 0.85990983 2.9491994e-39
-1.3960634 0.44047147 0.85505307 1.9354076e-39
-1.4439569 0.18350075 0.78400367 8.7564661e-39
-1.4364023 0.21714734 0.79068846 7.9267026e-39
-1.4208239 0.26577556 0.79597795 6.9111059e-39
-1.4026581 0.31449628 0.79865944 5.2508587e-39
-1.3952677 0.36470574 0.80148244 3.4994935e-39
-1.3814237 0.41374975 0.80810571 2.5782518e-39
-1.3746843 0.44344604 0.81131423 2.1179926e-39
-1.4380708 0.18745776 0.74434286 7.0043792e-39
-1.4302539 0.22137366 0.74628091 6.0802649e-39
-1.4162526 0.26775336 0.75106865 4.8813545e-39
-1.3987379 0.31499416 0.75519753 3.7753615e-39
-1.3893942 0.3656168 0.75686473 2.7601264e-39
-1.3739201 0.4151749 0.76015282 1.4726246e-39
-1.3632593 0.44502348 0.76259631 1.0120037e-39
-1.425077 0.22736709 0.69954497 4.7895176e-39
-1.4114453 0.27001399 0.70103657 3.7750014e-39
-1.393687 0.31609601 0.70477313 2.8526821e-39
-1.3853871 0.3650856 0.70746648 2.0229187e-39
-1.3733633 0.41760474 0.71073365 7.3577698e-40
-1.3638179 0.44972783 0.71549886 5.5138292e-40
-1.4176679 0.23471643 0.64889407 3.6828029e-39
-1.407306 0.27249241 0.65075356 3.1285488e-39
-1.3930051 0.31987858 0.6543591 2.2991468e-39
-1.3812748 0.36777306 0.65762526 1.4697393e-39
-1.3689979 0.42024535 0.66108239 3.6734759e-40
-1.3600621 0.45295829 0.66343725 2.7550649e-40
-1.4108928 0.2434891 0.6042192 2.943796e-39
-1.404963 0.27558506 0.59995151 2.3902621e-39
-1.3922653 0.32369071 0.60354769 1.7456073e-39
-1.3805326 0.37174326 0.60697401 9.1835776e-40
-1.3659023 0.42150795 0.61206257 1.8367239e-40
-1.3582217 0.45495683 0.63353121 9.1835496e-41
-1.4593991 -0.1433263 0.52769792 1.8896541e-38
-1.4381927 -0.11167738 0.51944005 1.1980052e-38
-1.413667 -0.093988918 0.50865358 8.2011035e-39
-1.3973738 0.28890723 0.55449915 1.377538e-39
-1.3878499 0.32619411 0.5530591 9.1835636e-40
-1.3785882 0.37536496 0.55609101 3.6734198e-40
-1.3624914 0.42245936 0.56143373 0
-1.3536203 0.4503966 0.54788136 0
-1.4163934 -0.082869902 0.48053452 6.8170858e-39
-1.387301 0.29448837 0.48527375 7.3468397e-40
-1.3831903 0.32955956 0.50202352 3.6734198e-40
-1.3757752 0.38011533 0.5046519 0
-1.3591346 0.42446071 0.51011807 0
-1.3515666 0.45087683 0.53301823 0
-1.4149127 -0.078428075 0.43365404 5.4341472e-39
-1.3761071 0.33780396 0.45634809 0
-1.3695006 0.38250345 0.45480803 0
-1.3568165 0.42629194 0.45854664 0
-1.3888621 -0.080456071 0.38387135 6.1731387e-39
-1.3692676 0.34225243 0.40435177 0
-1.3627217 0.38329804 0.40197641 0
-1.3533469 0.42721927 0.40789446 0
-1.3979145 -0.072776049 0.32657939 2.392399e-39
-1.3613333 0.34894645 0.3524383 0
-1.356137 0.38315177 0.35240042 0
-1.3465768 0.43397975 0.35733733 0
-1.3923397 -0.062503234 0.2926181 6.4392607e-40
-1.3564489 0.35492712 0.32259908 0
-1.3478326 0.40210199 0.31166622 0
-1.3416197 0.43359429 0.31009832 0
-1.3852021 -0.057195172 0.22979616 0
-1.3764828 0.043558076 0.2331748 0
-1.3838435 0.076415077 0.23396273 0
-1.3415724 0.40679157 0.27003357 0
-1.3340619 0.43952698 0.26079944 0
-1.3821945 -0.059342474 0.18660268 0
-1.3741646 0.045739248 0.19112037 0
-1.3812374 0.072316557 0.19333589 0
-1.3272707 0.44498551 0.21386881 0
-1.3607601 -0.060244702 0.13478221 0
-1.3747818 0.048174962 0.14424767 0
-1.3219498 0.44363731 0.16475372 0
-1.3586471 -0.051302359 0.10614495 0
-1.4870605 0.2781319 0.97406298 1.8809741e-38
-1.4781857 0.31809741 0.97594571 2.2403905e-38
-1.479473 0.17105426 0.92974591 1.5768771e-38
-1.4760047 0.2113011 0.93110126 1.954479e-38
-1.4659407 0.27247584 0.96224868 1.6508097e-38
-1.4588671 0.31777894 0.96458775 2.1758177e-38
-1.4505725 0.34665203 0.96584857 1.4198161e-38
-1.4187044 0.53886026 0.94560623 9.1846707e-41
-1.478006 0.18223335 0.88907188 1.6227922e-38
-1.4719007 0.20918204 0.88807756 2.341769e-38
-1.4711773 0.18122487 0.83447564 1.299927e-38
-1.4639695 0.22122978 0.83967423 1.5025398e-38
-1.4556504 0.26924098 0.83807117 1.5117952e-38
-1.4462843 0.32517952 0.83113998 1.0690751e-38
-1.4541732 0.3711254 0.83592349 4.8856775e-39
-1.444155 0.409329 0.83214116 3.3179805e-39
-1.4467002 0.48172277 0.83033514 1.7502904e-39
-1.4500632 0.51635927 0.83185893 8.2833275e-40
-1.4692818 0.14334197 0.78285229 1.1061002e-38
-1.4558444 0.1618544 0.78578126 9.8631766e-39
-1.4359691 0.48325723 0.82045674 1.4729861e-39
-1.4488225 0.51127458 0.82122409 1.0123653e-39
-1.4598312 0.14467378 0.72876668 8.5713489e-39
-1.4493669 0.16572316 0.73764765 7.6497514e-39
-1.4588577 0.14709683 0.68594575 7.371361e-39
-1.4440799 0.17477031 0.69384205 6.3572091e-39
-1.4350282 0.20766829 0.69094312 5.3419754e-39
-1.4484552 0.14768527 0.64071149 6.1724535e-39
-1.4410405 0.17734499 0.64273286 5.2504958e-39
-1.4290112 0.21622469 0.64493847 4.1437839e-39
-1.4460659 0.15035157 0.58907616 4.9735432e-39
-1.4386488 0.18012439 0.59120858 4.2363369e-39
-1.4238298 0.22415487 0.59353822 3.2207416e-39
-1.4845213 -0.11211811 0.5205586 1.4101997e-38
-1.4750344 -0.077736109 0.50791872 8.1071072e-39
-1.4400411 0.14930491 0.53633225 3.4976886e-39
-1.4332308 0.18216603 0.5400185 2.9445148e-39
-1.420621 0.23147978 0.54381299 2.2062281e-39
-1.4087731 0.26958257 0.54324299 1.5615734e-39
-1.46329 -0.070442468 0.4810487 6.1706346e-39
-1.4382813 0.15044107 0.48432446 2.4824549e-39
-1.4284796 0.18437891 0.48851851 1.9299972e-39
-1.4163392 0.23390163 0.49239388 1.1938657e-39
-1.4027327 0.27933711 0.49960592 9.1835496e-40
-1.3951683 0.31098795 0.5095098 9.1835496e-40
-1.3854959 0.37159389 0.50594759 1.8367099e-40
-1.4415467 -0.058750071 0.41350177 4.2374046e-39
-1.4340025 0.15251423 0.43586686 1.3775366e-39
-1.424202 0.18670584 0.43671826 8.2651947e-40
-1.4099962 0.23575403 0.44139779 6.4284847e-40
-1.3981549 0.2850033 0.44537413 1.8367099e-40
-1.3861524 0.32030737 0.44226435 0
-1.3770943 0.38004118 0.45252612 0
-1.4486262 -0.062485367 0.37646419 5.9873153e-39
-1.4340824 0.15328579 0.38461062 7.3468397e-40
-1.4190458 0.18849738 0.39034715 3.6734198e-40
-1.4038018 0.23757346 0.3911719 0
-1.3907065 0.2864908 0.3948549 0
-1.3788279 0.32843 0.39757594 0
-1.3700765 0.3841756 0.40457603 0
-1.4441458 -0.059012599 0.33031949 2.5778721e-39
-1.4283645 0.15741979 0.33620766 1.8367099e-40
-1.4156606 0.19072886 0.34321967 0
-1.4003267 0.23985122 0.34472749 0
-1.387411 0.2889787 0.34815577 0
-1.3740647 0.33388811 0.35021913 0
-1.3627721 0.38732624 0.35335603 0
-1.3576089 0.41701114 0.34841666 0
-1.4371539 -0.04472062 0.28456244 1.8402972e-40
-1.4229723 0.013256624 0.26044095 0
-1.4410919 0.036263749 0.258017 0
-1.4233329 0.16149701 0.294929 0
-1.4140645 0.19382448 0.28975776 0
-1.3960096 0.24203216 0.29675186 0
-1.3845315 0.29161125 0.30107194 0
-1.3692646 0.33717602 0.30340597 0
-1.3561809 0.38695133 0.30128527 0
-1.3485216 0.42399812 0.28818569 0
-1.4454163 -0.044073686 0.22959901 0
-1.4130279 -0.0010532439 0.23076567 0
-1.4110962 0.034982204 0.24633537 0
-1.4076933 0.096101269 0.24305922 0
-1.4175925 0.14421652 0.23856862 0
-1.4112926 0.19625969 0.24187344 0
-1.3934286 0.24500169 0.2437176 0
-1.3799635 0.29408741 0.24909945 0
-1.3666377 0.34272963 0.25441012 0
-1.3528688 0.38910586 0.25351357 0
-1.3433609 0.42312127 0.24846362 0
-1.4305335 -0.035025448 0.17186274 0
-1.4148587 -0.00038553774 0.18210772 0
-1.4024417 0.031734645 0.18484269 0
-1.3937135 0.098512128 0.18569626 0
-1.4102432 0.14619301 0.1893892 0
-1.4082235 0.19865577 0.19386519 0
-1.39316 0.24996637 0.19216757 0
-1.3743405 0.29621714 0.19739187 0
-1.3609298 0.34487665 0.20300364 0
-1.3479276 0.39237809 0.20753162 0
-1.3367999 0.42965633 0.20667663 0
-1.4149202 -0.039393514 0.13270372 0
-1.4097425 0.0026195794 0.13409398 0
-1.3919797 0.034978226 0.13682705 0
-1.3999461 0.092412382 0.14096068 0
-1.4120401 0.15140043 0.14204867 0
-1.4031039 0.20084624 0.14110364 0
-1.3894428 0.24938713 0.14511436 0
-1.3683426 0.29948646 0.14768265 0
-1.3545611 0.34675914 0.1518489 0
-1.3411751 0.39492869 0.15770215 0
-1.3302701 0.43451726 0.16321504 0
-1.4199748 -0.031812891 0.080728278 0
-1.3998158 -0.0014427304 0.083757266 0
-1.3923154 0.043854088 0.090127185 0
-1.412542 0.083721995 0.094552308 0
-1.40527 0.17236154 0.090622455 0
-1.3971105 0.20365991 0.089600444 0
-1.3822435 0.25228322 0.095509917 0
-1.3636655 0.30029076 0.09891507 0
-1.349048 0.34899342 0.10016467 0
-1.3367577 0.39766353 0.10562317 0
-1.3234658 0.43723077 0.11254844 0
-1.4126133 -0.035167187 0.045275673 0
-1.394176 0.004449591 0.051942706 0
-1.4118656 0.046258688 0.047035322 0
-1.3988109 0.17387195 0.043876946 0
-1.3937507 0.20444973 0.051444039 0
-1.3795396 0.25417632 0.058085322 0
-1.3631444 0.2986716 0.064770833 0
-1.347409 0.35099 0.068094179 0
-1.3325555 0.3986398 0.075204179 0
-1.322781 0.43737257 0.079649076 0
-1.4546676 0.536309 0.82214272 5.5246052e-40
-1.5437686 -0.14278063 0.52793282 2.1294337e-38
-1.5340724 -0.11079787 0.52030343 1.668312e-38
-1.5312064 -0.067786261 0.50758833 9.4900458e-39
-1.5193167 -0.053476021 0.47704586 7.3695379e-39
-1.5110151 -0.048696741 0.42129114 3.7753489e-39
-1.4980544 -0.04281272 0.3687979 5.3426648e-39
-1.4892381 -0.036711119 0.32269213 9.197955e-40
-1.4785401 -0.02990374 0.28185502 0
-1.5014567 -0.014027432 0.26711622 0
-1.4761419 0.05885841 0.25891575 0
-1.4801382 0.090125009 0.25254968 0
-1.4697244 0.1464598 0.25642243 0
-1.4810053 -0.027283803 0.22487165 0
-1.456246 0.065091863 0.25145334 0
-1.4641422 0.096748069 0.24978602 0
-1.4630151 0.14846702 0.25021276 0
-1.4700422 -0.031945832 0.19088605 0
-1.4242898 0.12065966 0.12087849 0
-1.4220326 0.15602981 0.12125386 0
-1.441571 0.094132155 0.067237288 0
-1.426644 0.1506827 0.085176066 0
-1.4666905 -0.041499995 0.028547717 0
-1.4311433 0.069330037 0.032195508 0
-1.4301935 0.082805052 0.045519054 0
-1.4217587 0.16365366 0.04367426 0
-1.4065868 0.18519275 0.06152989 0
-1.583622 -0.098519549 0.51873618 1.7605076e-38
-1.5731615 -0.051629111 0.50397789 9.3074538e-39
-1.5571868 -0.036342792 0.46139172 6.9089213e-39
-1.5652995 -0.031546019 0.42230818 5.0650017e-39
-1.548148 -0.028406039 0.3695263 6.5415695e-39
-1.5506026 -0.01663582 0.35733077 3.4983963e-39
-1.5396962 -0.026975363 0.3211337 1.5637258e-39
-1.5630919 -0.013663396 0.31281134 6.4357154e-40
-1.5338395 -0.011139765 0.2850143 0
-1.5030074 0.082445696 0.25464824 0
-1.5006528 0.15390544 0.26094338 0
-1.5167364 -0.023945108 0.20971677 0
-1.5428494 -0.010841101 0.21006715 0
-1.5222219 0.096860901 0.24682933 0
-1.533061 -0.010304019 0.17933197 0
-1.4829699 0.12603672 0.065355197 0
-1.4898633 0.12012525 0.02495019 0
-1.4736196 0.15459807 0.01869653 0
-1.4857929 0.11595418 -0.0047750045 0
-1.6444315 0.64599311 1.2686195 6.482687e-40
-1.6291193 0.73940802 1.2805139 4.2038954e-45
-1.626212 0.77709758 1.2812066 4.2038954e-45
-1.5967242 0.8887831 1.2840912 7.1923199e-39
-1.5900574 0.91719246 1.2868309 5.6246425e-39
-1.6213622 0.79477662 1.2649479 0
-1.6115171 0.85222852 1.256498 0
-1.6019205 0.86998057 1.2633935 0
-1.589745 0.92975736 1.2694522 0
-1.656728 -0.18741845 0.52920717 2.2677622e-38
-1.6467236 -0.18136436 0.51972258 2.2215576e-38
-1.6229755 -0.14220211 0.52544576 2.1663479e-38
-1.6329206 -0.091194838 0.51883221 1.9357515e-38
-1.6236252 -0.038330443 0.50162762 9.3992935e-39
-1.6220822 -0.015433133 0.46445522 7.4610105e-39
-1.6108137 -0.0069900304 0.44692877 6.9067493e-39
-1.5860193 -0.020881876 0.39242354 4.6040166e-39
-1.6059792 -0.0079018772 0.412622 5.7085648e-39
-1.5961164 -0.01352866 0.37194046 6.5419226e-39
-1.6146896 0.0058281273 0.36047173 3.5927513e-39
-1.5842375 -0.01160036 0.30541733 9.2194229e-41
-1.5903065 -0.00089706481 0.30190432 0
-1.5877912 0.0090667456 0.25916272 0
-1.5899056 0.083699837 0.24978468 5.5570593e-40
-1.5737066 0.1084805 0.25001717 1.4012985e-45
-1.5427486 0.15621276 0.26175416 0
-1.5823201 0.0048741698 0.1873094 0
-1.5812601 0.07741566 0.23517065 9.1835496e-41
-1.5660545 0.12898873 0.23051974 0
-1.5807543 0.0052403063 0.17597719 0
-1.5067244 0.13577075 0.0064408313 0
-1.5120646 0.12304597 -0.015438946 0
-1.696286 0.55468917 1.2551903 2.8606275e-39
-1.6918374 0.59797424 1.2720596 2.4918324e-39
-1.6755166 0.63355339 1.2712723 1.2007236e-39
-1.6586235 0.68403399 1.2748958 3.6988114e-40
-1.6496441 0.73049027 1.2745857 2.7695543e-40
-1.6359984 0.77864432 1.2767884 1.4012985e-45
-1.6297349 0.82974505 1.2808373 4.6061661e-40
-1.6244056 0.87249863 1.2800564 2.4892792e-39
-1.6108159 0.92562068 1.2735727 9.1835496e-41
-1.6916546 0.58831495 1.2352571 2.2145308e-39
-1.6680901 0.63536799 1.2503231 3.7097135e-40
-1.6587826 0.6803326 1.2521009 3.7694929e-43
-1.6460656 0.72952771 1.2535257 1.4012985e-45
-1.6322944 0.78600109 1.2553312 0
-1.6258382 0.8112728 1.256079 0
-1.6218641 0.89667439 1.2622705 0
-1.6912556 0.60219276 1.1949909 2.0297794e-39
-1.6881511 0.58020264 1.1466541 4.0570071e-39
-1.684617 -0.16488408 0.52427834 2.2769821e-38
-1.6928344 -0.13580324 0.52336311 2.1847151e-38
-1.6984524 -0.088772804 0.52338707 2.1662403e-38
-1.6864204 -0.071363315 0.51417208 1.9264962e-38
-1.6827558 -0.023839489 0.49996433 9.7673516e-39
-1.6714681 -0.00036132336 0.48283103 8.2000048e-39
-1.6485727 -0.0018372536 0.4701089 8.0138171e-39
-1.6318982 0.011844516 0.39119175 3.1310599e-39
-1.6316159 0.011276379 0.35168245 8.2832994e-40
-1.6443015 0.017113209 0.30271313 0
-1.6212437 0.024434045 0.26434177 0
-1.6021564 0.074216887 0.23905149 3.643376e-43
-1.6192446 0.12720121 0.25409287 1.4012985e-45
-1.6028295 0.16503401 0.25374532 9.1835496e-41
-1.638761 0.013674989 0.19215597 0
-1.6017247 0.059539869 0.21909797 4.2038954e-45
-1.6265177 0.017522275 0.16845958 0
-1.817548 0.23928036 1.3312976 2.3509886e-38
-1.8084648 0.21971239 1.3097531 2.3418046e-38
-1.8012699 0.24373297 1.2984276 2.0654723e-38
-1.7955128 0.25171679 1.2509249 2.2128399e-38
-1.7808059 0.28046912 1.2326423 2.3509886e-38
-1.778663 0.2508629 1.2005483 1.7427558e-38
-1.7602926 0.28106821 1.1953201 2.2128034e-38
-1.715865 0.55435121 1.2187626 3.8751368e-39
-1.7074598 0.57483739 1.2165321 3.0446586e-39
-1.7615033 0.26109403 1.1690837 2.3326213e-38
-1.7462687 0.28715467 1.1801347 2.3509524e-38
-1.7067965 0.5588032 1.1688013 4.2424787e-39
-1.7015736 0.58348352 1.1775001 3.1357725e-39
-1.7446097 0.50802225 1.0900347 8.3008927e-39
-1.7021408 0.56401581 1.1183686 4.8878369e-39
-1.6973517 0.57908022 1.114898 4.3339443e-39
-1.74124 0.51115143 1.0683136 7.1027097e-39
-1.7172455 0.5539642 1.0653927 5.1637092e-39
-1.6950579 0.58427018 1.0720183 4.4250595e-39
-1.703716 0.56500226 1.0249903 5.4381254e-39
-1.6902592 0.58449829 1.0244702 4.5165265e-39
-1.7538948 -0.16534369 0.52303916 2.2585066e-38
-1.7495515 -0.1353469 0.52460855 2.2769461e-38
-1.7164673 -0.078150995 0.52010924 2.1202143e-38
-1.7156065 -0.029626325 0.50511628 1.2349554e-38
-1.6975158 0.0016784817 0.4892281 8.6599068e-39
-1.691221 0.034791633 0.28067008 0
-1.6673827 0.034270719 0.23899634 0
-1.6451198 0.14524193 0.25955617 2.8025969e-45
-1.6762162 0.02521424 0.1916227 0
-1.6516364 0.023825496 0.17018992 0
-1.8548185 0.29419935 1.3213646 2.3509886e-38
-1.8243345 0.22426654 1.2962267 2.3325494e-38
-1.8294631 0.24296899 1.2871113 2.0469614e-38
-1.8418764 0.29895228 1.3138695 2.3509886e-38
-1.8386155 0.22965132 1.2640716 1.6412665e-38
-1.8305118 0.19012932 1.1750994 1.8441347e-38
-1.8159928 0.30630451 1.1816111 2.3142544e-38
-1.8417073 0.20115806 1.1583712 2.1758539e-38
-1.7498853 0.51140636 1.0547369 7.4711363e-39
-1.7483931 0.54781359 1.0489107 4.61162e-39
-1.7506546 0.50973171 1.0244268 7.7462798e-39
-1.7449763 0.54569149 1.0323387 4.6116172e-39
-1.7604535 -0.043193139 0.51232165 1.8341924e-38
-1.7395099 0.046238795 0.27711827 0
-1.7498449 0.054430827 0.26065311 0
-1.7386529 0.10110067 0.22981963 0
-1.7179341 0.1689622 0.24604499 3.6734339e-40
-1.7218274 0.042647094 0.17989846 1.4012985e-45
-1.7366581 0.099564806 0.21310166 3.671402e-43
-1.7176788 0.049680844 0.15550311 1.4012985e-45
-1.606217 0.60206288 -0.090099342 0
-1.6046326 0.6447317 -0.087844908 0
-1.594007 0.69294256 -0.082054369 0
-1.5817397 0.74168581 -0.080321193 0
-1.58137 0.78838354 -0.081588238 0
-1.5761617 0.83906871 -0.08017315 0
-1.574667 0.87882352 -0.080566756 0
-1.561446 0.99956453 -0.076723374 0
-1.5524433 1.0617416 -0.073470443 0
-1.5459352 1.07726 -0.070185058 0
-1.795043 1.0683967 1.4176409 1.0971253e-38
-1.7858484 1.0660745 1.3842788 1.1524784e-38
-1.8688359 0.31242365 1.3018516 2.3509886e-38
-1.8623203 0.17655836 1.1671392 2.0006851e-38
-1.8625464 0.17842112 1.1365083 2.341769e-38
-1.8545148 0.20299204 1.1310179 2.3509527e-38
-1.8600299 0.19913761 1.1067697 2.3509886e-38
-1.7872473 0.05747588 0.28449869 1.4012985e-45
-1.7815397 0.090490267 0.28181806 1.4012985e-45
-1.7760164 0.13674594 0.28166324 1.4012985e-45
-1.7741323 0.058765933 0.22583289 0
-1.7622243 0.08529669 0.24029951 8.290432e-40
-1.7559531 0.13740228 0.24185276 1.8403393e-40
-1.743131 0.1681862 0.26326409 4.5917748e-40
-1.7540679 0.0557926 0.18825105 9.219577e-40
-1.75168 0.078671217 0.19102991 9.2558566e-41
-1.7600589 0.07426545 0.13788457 0
-1.6405522 0.61479712 -0.092269078 0
-1.6389855 0.64587194 -0.089051634 0
-1.6310489 0.69742423 -0.084793478 0
-1.6253821 0.74729615 -0.084375463 0
-1.6212993 0.8007583 -0.085358322 0
-1.6164098 0.84898889 -0.083284095 0
-1.6039101 0.89587867 -0.082853645 0
-1.6075135 0.9481951 -0.088098168 0
-1.5882645 0.99482691 -0.084291123 0
-1.5875199 1.0460035 -0.082342908 0
-1.584465 1.0966475 -0.076682307 0
-1.58961 0.95111096 -0.091534108 0
-1.5831137 0.97417724 -0.088495091 0
-1.5731058 1.0432965 -0.084878951 0
-1.8974103 0.47303033 1.0790946 2.341805e-38
-1.8128835 0.098510519 0.30669612 9.1845305e-41
-1.8150145 0.15249862 0.29294249 1.0116324e-39
-1.6899865 0.66307199 -0.092493355 0
-1.6820374 0.71062148 -0.088422783 0
-1.6762745 0.75644189 -0.086503923 0
-1.6723962 0.80346346 -0.08566153 0
-1.6638632 0.85286307 -0.083319351 0
-1.6614588 0.91031516 -0.084326334 0
-1.6469218 0.95154202 -0.086176187 0
-1.640444 1.0014907 -0.086516269 0
-1.6380615 1.0531667 -0.087646455 0
-1.6195953 1.1054188 -0.08020547 0
-1.6210731 1.1403856 -0.073696069 0
-1.6361945 1.0239587 -0.092814982 0
-1.6346619 1.0563881 -0.092904143 0
-1.6267954 1.0888736 -0.089418747 0
-1.8996989 1.1164352 1.4513022 1.1431871e-38
-1.8791003 1.1141123 1.4306105 1.0879416e-38
-1.9291699 0.46669924 1.1213684 2.3049268e-38
-1.9191973 0.64730549 1.1195186 5.4399317e-39
-1.9265995 0.43812281 1.0822986 2.3509884e-38
-1.9196961 0.4656266 1.0939699 2.2772686e-38
-1.9281437 0.63928807 1.0933132 5.347383e-39
-1.9307506 0.44015747 1.0494196 2.3418049e-38
-1.9209275 0.4568156 1.0342342 2.3418049e-38
-1.9206715 0.64103538 1.0392351 5.5310484e-39
-1.9030787 0.5603174 0.89951378 4.7009402e-39
-1.9048676 0.58208287 0.88720077 3.4123565e-39
-1.9000851 0.5870986 0.85141134 2.8584555e-39
-1.7432125 0.67145985 -0.093870305 0
-1.7400753 0.71397799 -0.092831887 0
-1.731508 0.76282173 -0.089467354 0
-1.7243836 0.81416911 -0.085911788 0
-1.7137117 0.86249387 -0.086534627 0
-1.7118145 0.91884136 -0.089094587 0
-1.7059124 0.97573078 -0.093093783 0
-1.6957505 1.0116082 -0.089957215 0
-1.6820041 1.0689368 -0.091141053 0
-1.6688246 1.1161608 -0.090006799 0
-1.6581695 1.1508251 -0.083915129 0
-1.9432664 1.0820459 1.4507114 9.4082478e-39
-1.9370391 1.1070671 1.4579947 1.0788297e-38
-2.0002522 0.71860081 1.3725693 1.4566915e-38
-1.9373138 1.0871773 1.4256678 1.0972697e-38
-1.9236004 1.1172663 1.4152131 1.1248918e-38
-1.9973841 0.71927154 1.3518109 1.3647488e-38
-1.9701731 0.79237008 1.2308743 1.1070888e-39
-1.9622655 0.82538557 1.2321013 4.6100057e-40
-1.9571714 0.88216639 1.2355721 8.4077908e-45
-1.9416099 0.93748879 1.2417672 0
-1.933754 0.98405755 1.2428694 0
-1.9264121 1.0280275 1.2461438 0
-1.9195817 1.0801572 1.2478745 0
-1.9042113 1.1183616 1.2516427 0
-1.8891673 1.1529416 1.2518181 0
-1.9721348 0.66435081 1.1878431 5.7158054e-39
-1.9606762 0.82949871 1.2018932 1.2907542e-39
-1.9494987 0.88171411 1.2004499 7.3721471e-40
-1.9355636 0.93180573 1.203449 2.7623236e-40
-1.935714 0.98374319 1.2043684 9.1838299e-41
-1.9231579 1.0290048 1.208801 0
-1.912178 1.0785681 1.2063311 9.1835496e-41
-1.8961818 1.1233586 1.2118216 0
-1.8835983 1.1545793 1.2203158 0
-1.9656069 0.64593375 1.1178879 5.1640735e-39
-1.948972 0.65758806 1.1505077 5.5321274e-39
-1.9523516 0.83657873 1.1474929 1.8428434e-39
-1.9451337 0.88364673 1.1469309 1.1978299e-39
-1.9288058 0.93345439 1.1517947 5.5281785e-40
-1.9270871 0.98507094 1.1545761 2.7586802e-40
-1.9170525 1.0325732 1.159399 0
-1.8994101 1.0739782 1.1576809 0
-1.8871512 1.1271769 1.1652501 0
-1.8735974 1.1575887 1.1655418 0
-1.941716 0.64379418 1.1084247 5.3481018e-39
-1.9449918 0.84719789 1.1043611 1.9346775e-39
-1.9367516 0.88951766 1.0983777 1.4733336e-39
-1.9236507 0.93737125 1.1059648 8.2832294e-40
-1.9199493 0.99002957 1.1090882 5.5173465e-40
-1.9109174 1.0348297 1.1082777 9.1835496e-41
-1.8939444 1.0800972 1.1144882 0
-1.8829176 1.124616 1.1125206 4.6061661e-40
-1.871605 1.1582782 1.1155899 3.6841958e-40
-1.9411044 0.65097713 1.0278087 5.8991036e-39
-1.9315863 0.89482296 1.0580045 1.6570046e-39
-1.9209914 0.94165313 1.0548004 1.0127114e-39
-1.9169717 0.99045658 1.0572469 5.5173184e-40
-1.9088408 1.0342878 1.0645237 1.8367099e-40
-1.9012985 1.0841256 1.0604427 0
-1.8809719 1.1292853 1.0660563 1.0130659e-39
-1.8621206 1.1596017 1.0648768 9.2086609e-40
-1.8968002 0.93371141 0.93313289 0
-1.9195075 0.59650993 0.88793743 3.5041864e-39
-1.9112129 0.90292382 0.91435909 3.6734198e-40
-1.8982388 0.94066405 0.90591282 2.7550649e-40
-1.8965629 0.99453557 0.90875536 0
-1.8890312 1.0371504 0.91097569 0
-1.87226 1.0863084 0.91357934 0
-1.8568678 1.1390696 0.91634452 0
-1.8417771 1.164359 0.91764528 0
-1.9177146 0.58380979 0.86002123 2.9517385e-39
-1.9006299 0.91540897 0.84916621 0
-1.8976645 0.9440099 0.85948408 0
-1.8928267 0.98206246 0.86651576 0
-1.8824347 1.0441252 0.86840177 0
-1.8693968 1.0887707 0.86490917 0
-1.8489312 1.1366324 0.86817729 0
-1.8411175 1.1712961 0.87007433 0
-1.8895367 0.94736648 0.80231994 0
-1.8846064 0.98779809 0.81136644 0
-1.8760139 1.0425023 0.80918759 0
-1.8644454 1.0905547 0.81155372 0
-1.8434461 1.1358967 0.81114477 0
-1.8376515 1.1735883 0.81510031 0
-1.8793316 0.9604305 0.740623 0
-1.8672421 1.0566871 0.75952125 0
-1.861324 1.0905843 0.76137137 0
-1.8444445 1.1375246 0.76332682 0
-1.8396962 1.1780268 0.76865041 0
-1.8774195 0.96087766 0.72678399 0
-1.8555486 1.0927893 0.71289188 0
-1.8373547 1.1406654 0.71653008 0
-1.8281443 1.1794827 0.71889853 0
-1.8557688 1.0593699 0.67648768 0
-1.8488562 1.0943544 0.66445553 0
-1.8310219 1.1424468 0.66832983 0
-1.8259517 1.1843698 0.67037117 0
-1.8442957 1.0620531 0.593454 0
-1.8424234 1.1047566 0.62803364 0
-1.8333142 1.1470065 0.62091714 0
-1.8188177 1.181354 0.61927646 0
-1.8329704 1.1147528 0.56848645 0
-1.8280352 1.1474209 0.56865537 0
-1.8197143 1.1861426 0.56562448 0
-1.8207331 1.1609925 0.52931863 0
-1.8139669 1.1862687 0.51881433 0
-1.8131725 1.1494132 0.45940116 0
-1.8095839 1.186957 0.47522774 0
-1.8054357 1.1645696 0.41860715 0
-1.801347 1.2055671 0.43461442 0
-1.9237955 0.12730335 0.30159116 5.5210599e-40
-1.9370892 0.15716122 0.30520561 2.5771588e-39
-1.7938042 1.1913143 0.36178458 0
-1.9123299 0.11933149 0.29068717 1.8404514e-40
-1.9254177 0.1594343 0.28145811 1.011638e-39
-1.7939625 1.1672524 0.33557364 0
-1.9262733 0.21091594 0.23933241 1.2864172e-39
-1.9088581 0.24613152 0.14875931 3.6841958e-40
-1.7997247 0.87226999 0.042894125 0
-1.7904855 0.92651474 0.048463941 0
-1.7780313 0.96925557 0.043052807 0
-1.7720158 1.0174059 0.046186358 0
-1.7464162 1.2034574 0.056780413 0
-1.7959442 0.86648047 0.0079354327 0
-1.7880868 0.9222194 0.012451051 0
-1.7710915 0.97206295 0.010577811 0
-1.7721308 1.0209923 0.016687049 0
-1.7676939 1.065136 0.022179214 0
-1.7548834 1.116017 0.019326596 0
-1.7486691 1.1645579 0.02545063 0
-1.7408106 1.2026875 0.023029936 0
-1.7917991 0.85810661 -0.032703489 0
-1.781233 0.9259783 -0.034697622 0
-1.7729925 0.97367513 -0.033028975 0
-1.768249 1.0131011 -0.032911956 0
-1.7531041 1.1176989 -0.027439641 0
-1.746724 1.164952 -0.021501826 0
-1.7317861 1.2015918 -0.021438034 0
-1.7861147 0.68722069 -0.093888208 0
-1.7911724 0.7263695 -0.097475931 0
-1.7834666 0.77809995 -0.098301157 0
-1.776807 0.82406425 -0.095165081 0
-1.7658672 0.8733629 -0.092532352 0
-1.7542094 0.91788793 -0.09358076 0
-1.7577335 0.96930027 -0.10045168 0
-1.7586879 1.0153368 -0.10210663 0
-1.7194698 1.0499882 -0.096650086 0
-1.7127775 1.1203071 -0.094859071 0
-1.7055572 1.1701736 -0.092250131 0
-1.7263566 1.2073475 -0.067361847 0
-1.7364434 1.0773436 -0.10654617 0
-1.722526 1.1734651 -0.10151727 0
-2.0697424 0.65203363 1.4583977 6.2718504e-39
-2.0546966 0.66832465 1.4559134 4.7066785e-39
-2.0658278 0.65294909 1.4300671 6.1800163e-39
-2.0430694 0.68263358 1.4308898 8.8540385e-39
-2.0276077 0.71680415 1.4358066 1.0604667e-38
-2.0559964 0.65334809 1.3797168 5.9956292e-39
-2.0351627 0.67957014 1.3801059 1.0881265e-38
-2.017612 0.71603364 1.3912034 1.4566915e-38
-2.03092 0.67629886 1.3379838 8.3005186e-39
-2.0112362 0.71068674 1.3541141 1.4476167e-38
-2.0462549 0.65752602 1.2884142 4.9818459e-39
-2.0451863 0.6714378 1.2962366 4.2435619e-39
-2.0364687 0.65981454 1.2175877 5.2577111e-39
-2.0196452 0.67458105 1.2229953 4.6112641e-39
-2.0039389 0.74492353 1.2235185 2.5825945e-39
-1.9903281 0.77747118 1.2251641 1.4765958e-39
-1.9485576 1.0408883 1.2598231 0
-2.0335326 0.66050112 1.1963397 5.0743988e-39
-2.0089505 0.66647142 1.1794409 5.348462e-39
-2.0031712 0.7456345 1.1866739 3.5960149e-39
-1.9881637 0.7847842 1.1862649 2.8580827e-39
-1.9707711 0.82756871 1.1835823 2.0279577e-39
-2.0182414 0.6544565 1.135957 5.3488249e-39
-1.9904301 0.66184247 1.1423717 5.7161627e-39
-1.9997668 0.74907678 1.1357055 3.596368e-39
-1.9850121 0.78872597 1.1406765 2.9499154e-39
-1.9673047 0.82189286 1.13427 2.3967347e-39
-1.9942617 0.7489897 1.0840907 3.9633499e-39
-1.9832981 0.79105026 1.0881571 3.0417439e-39
-1.9629359 0.83615768 1.088643 2.3034586e-39
-1.9578609 0.8681916 1.0908694 2.1176296e-39
-1.9345286 0.98374557 1.0894839 7.3540424e-40
-2.0101113 0.65724719 1.0398589 4.6101823e-39
-1.9948721 0.75099611 1.0460452 3.8711515e-39
-1.9800415 0.79441392 1.0393231 3.1328592e-39
-1.9666488 0.83722454 1.0510089 2.5793224e-39
-1.9474406 0.88203812 1.0494987 1.8417574e-39
-1.9368951 0.91605496 1.0301594 1.1963824e-39
-1.9277513 0.99204409 1.0480807 5.5281084e-40
-1.9033064 1.0581838 0.93997467 0
-1.9718111 0.71482968 0.8869375 1.5666307e-39
-1.9749956 0.74799144 0.88735223 1.3818695e-39
-1.9599738 0.80103964 0.89016783 5.5210319e-40
-1.9513812 0.84662867 0.89208019 2.7551209e-40
-1.9324293 0.8885994 0.89320403 3.6770212e-40
-1.9166963 0.92077827 0.88397563 0
-1.9090173 0.99306798 0.90867633 9.1835496e-41
-1.9016485 1.0182892 0.88210428 0
-1.9784582 0.71436542 0.84442687 1.5669838e-39
-1.9719131 0.74903023 0.84627205 1.0134457e-39
-1.9599373 0.80629832 0.84354645 4.5990896e-40
-1.9456758 0.85000527 0.84476453 1.83678e-40
-1.9266477 0.89251459 0.84735703 1.4012985e-45
-1.9105753 0.92668557 0.84477156 0
-1.9008195 0.99834192 0.85316908 0
-1.8950371 1.0305773 0.84648812 0
-1.9640753 0.75374633 0.78134555 7.3613712e-40
-1.9508836 0.80648392 0.79141092 2.755163e-40
-1.9379244 0.85109079 0.79549301 9.18397e-41
-1.9219613 0.89529812 0.79829919 0
-1.9044833 0.92811 0.80068445 0
-1.893818 0.99901998 0.80140597 0
-1.8881531 1.0259209 0.78953159 0
-1.9586604 0.75314963 0.74003661 6.4357995e-40
-1.9467108 0.80777013 0.74319398 1.836766e-40
-1.9345567 0.85449958 0.74603617 9.1838299e-41
-1.9202631 0.89975417 0.74900329 0
-1.8995738 0.94614816 0.75376499 0
-1.8883601 0.994542 0.75534964 0
-1.8819206 1.0390154 0.75767642 0
-1.9512529 0.76512808 0.69809562 4.5918589e-40
-1.9436893 0.80591613 0.69485575 1.8367239e-40
-1.9311028 0.85196102 0.69477153 0
-1.9160306 0.90278161 0.69964498 0
-1.8964992 0.94683182 0.70379561 0
-1.8870054 0.99536312 0.7040208 0
-1.8752162 1.045171 0.70911634 0
-1.9438453 0.7771067 0.65615457 3.6734619e-40
-1.9377632 0.81040668 0.64843726 1.4012985e-45
-1.9278383 0.85380876 0.64635432 0
-1.9113114 0.90557647 0.65019107 0
-1.8914442 0.95278418 0.65299952 0
-1.8795352 0.99740636 0.65871429 0
-1.8679506 1.0444795 0.65907395 0
-1.9269381 0.82204592 0.58046484 0
-1.9222653 0.8595978 0.59472299 0
-1.9072741 0.90873682 0.60053182 0
-1.8850394 0.95495367 0.6057387 0
-1.8769978 1.002579 0.60740697 0
-1.8615119 1.0464735 0.61303031 0
-1.8535504 1.0951819 0.60876071 0
-1.8471648 1.1250219 0.59482658 0
-1.9240022 0.82273245 0.55921698 0
-1.915562 0.86168623 0.55045092 0
-1.9041409 0.91242301 0.55059731 0
-1.8905671 0.95796239 0.55419141 0
-1.8691319 0.99812281 0.55901307 0
-1.8568847 1.051137 0.56257164 0
-1.8488377 1.0972537 0.56523329 0
-1.837369 1.1541674 0.55451405 0
-1.9080012 0.87838912 0.50253403 0
-1.8978907 0.91087055 0.50302392 0
-1.8856283 0.95652926 0.50237906 0
-1.8732563 1.005038 0.50852841 0
-1.8612825 1.0578772 0.51127249 0
-1.8422675 1.100848 0.51651525 0
-1.8337227 1.1454293 0.51720011 0
-1.8216249 1.2115587 0.50173342 0
-1.9021115 0.88249862 0.46301916 0
-1.889955 0.9172616 0.45314598 0
-1.8781614 0.96187735 0.45535883 0
-1.8656783 1.0059749 0.45491704 0
-1.8459074 1.0581808 0.45875368 0
-1.8345658 1.1026428 0.46076867 0
-1.8260028 1.1496643 0.46409556 0
-1.8180957 1.2006352 0.46281102 0
-1.8873005 0.91594779 0.39762768 0
-1.8733279 0.95837045 0.40692803 0
-1.860638 1.0098823 0.40341327 0
-1.8471142 1.0564461 0.411226 0
-1.8338379 1.1084861 0.41050538 0
-1.8203051 1.1504674 0.41460496 0
-1.8121061 1.1986787 0.41564164 0
-1.8884106 0.88570261 0.36386213 0
-1.8821026 0.9162091 0.35126886 0
-1.8697705 0.96059167 0.35520557 0
-1.8527292 1.0109893 0.35833409 0
-1.8377459 1.0636232 0.35806608 0
-1.8276259 1.1104383 0.36143798 0
-1.8148501 1.1550782 0.3655279 0
-1.8060365 1.2036951 0.37580988 0
-1.8744572 0.92721868 0.30643931 0
-1.8577652 0.96135604 0.30607349 0
-1.8437858 1.0137097 0.31203112 0
-1.8347151 1.0656667 0.30785838 0
-1.8262792 1.1127414 0.31083143 0
-1.81108 1.1569564 0.31449714 0
-1.8018566 1.2060256 0.31903437 0
-1.9421813 0.22038408 0.20745084 8.268796e-40
-1.9382665 0.24904542 0.19667822 2.7550649e-40
-1.8670375 0.92622137 0.24963014 0
-1.8579046 0.96490765 0.25577241 0
-1.8419585 1.0142471 0.26120526 0
-1.8375788 1.0671632 0.26424444 0
-1.8249844 1.1149672 0.26593447 0
-1.8072541 1.1616826 0.27331027 0
-1.7951187 1.2075789 0.27023935 0
-1.9313796 0.22898902 0.17268512 4.5917748e-40
-1.9291854 0.25220293 0.17423716 3.6734198e-40
-1.8656058 0.88648164 0.19363189 0
-1.863112 0.91894221 0.21188432 0
-1.853973 0.96831548 0.20527408 0
-1.8399851 1.0155565 0.21196882 0
-1.837781 1.0677166 0.20960224 0
-1.826874 1.1187434 0.21649033 0
-1.81394 1.1677952 0.21816735 0
-1.7995995 1.2120571 0.21872643 0
-1.9221771 0.23469777 0.14381877 2.7622395e-40
-1.8529994 0.92130709 0.13869697 0
-1.8478837 0.96969879 0.15541798 0
-1.8380942 1.0104585 0.15899783 0
-1.8338592 1.0678658 0.16197276 0
-1.8217547 1.1233263 0.16492371 0
-1.8086112 1.1703665 0.16440818 0
-1.7981908 1.215868 0.16621794 0
-1.8574548 0.83829433 0.077596948 0
-1.8523363 0.87364578 0.079446435 0
-1.8485384 0.92039847 0.10418984 0
-1.8396128 0.97109783 0.10643426 0
-1.8329526 1.0160329 0.10635294 0
-1.8262821 1.0710039 0.10869075 0
-1.8194425 1.1204197 0.11364096 0
-1.8106517 1.1668702 0.11369862 0
-1.7987649 1.2232801 0.11389709 0
-1.8621696 0.73234367 0.031692937 0
-1.8503836 0.77678663 0.038701296 0
-1.8380462 0.82521045 0.050259069 0
-1.8304268 0.87365866 0.054939106 0
-1.8238695 0.92086101 0.064290524 0
-1.8150336 0.97420144 0.064602405 0
-1.8036326 1.0179744 0.067816719 0
-1.789435 1.0664326 0.06583935 0
-1.7880492 1.1180462 0.06911242 0
-1.7813489 1.1684731 0.068289518 0
-1.7773508 1.2168504 0.07986021 0
-1.856105 0.73139268 -0.0048028696 0
-1.836033 0.77516872 -0.0019251425 0
-1.8195758 0.82098824 0.0027243625 0
-1.7976488 0.91504848 -0.015827956 0
-1.780544 1.0331814 -0.0096475203 0
-1.775972 1.0711759 -0.00068685599 0
-1.7749417 1.1061045 0.031356424 0
-1.8517103 0.72994715 -0.052142978 0
-1.8388798 0.7756682 -0.049586803 0
-1.8159093 0.82194996 -0.041602477 0
-1.8033757 0.88186455 -0.052744836 0
-1.7961096 0.91138518 -0.05961746 0
-1.7777029 1.0271322 -0.03785564 0
-1.7712168 1.0707622 -0.036840826 0
-1.7638179 1.1230283 -0.032838553 0
-1.7561889 1.1731511 -0.033005297 0
-1.8412545 0.72766805 -0.10869871 0
-1.8405201 0.77875561 -0.094306834 0
-1.829093 0.8303892 -0.091726996 0
-1.8200265 0.87795424 -0.092469506 0
-1.8089727 0.92692482 -0.094929047 0
-1.7982008 0.97712648 -0.093397856 0
-1.7927852 1.0251472 -0.093654491 0
-1.7788273 1.0780084 -0.09177877 0
-1.7772042 1.1265613 -0.087596908 0
-1.7658081 1.172875 -0.078521445 0
-1.7478722 1.2119629 -0.088394322 0
-1.7634512 1.1337434 -0.10759405 0
-1.7599547 1.1776273 -0.10682195 0
-2.0659916 0.66114354 1.3411119 5.9027189e-39
-2.0803571 0.66950005 1.3168051 4.7056205e-39
-2.0749142 0.66097319 1.216494 5.9027189e-39
-2.0630267 0.66943634 1.2364492 5.2577083e-39
-2.0537951 0.66188711 1.1754221 5.5339392e-39
-2.0414603 0.65313125 1.1479172 5.9009197e-39
-2.0315833 0.65228593 1.0269121 4.8878524e-39
-2.0072486 0.77112246 1.0255733 3.5934828e-39
-1.9894302 0.78903818 0.91227329 5.5247173e-40
-1.9770675 0.87442231 0.9167403 3.6734339e-40
-1.996778 0.71857548 0.88716733 2.11908e-39
-1.9819143 0.73580015 0.79525065 1.1049266e-39
-1.966022 0.75082839 0.68163246 5.5138152e-40
-1.9735959 0.73183697 0.63646257 3.6771193e-40
-1.9668813 0.76228195 0.63835287 3.6734479e-40
-1.953335 0.79951936 0.63040125 1.8367239e-40
-1.961194 0.76748925 0.58859324 9.1835496e-41
-1.9461014 0.80941099 0.59365219 0
-1.9408994 0.84163362 0.6080122 0
-1.957746 0.73554343 0.52175152 1.8367239e-40
-1.9676983 0.76954287 0.53563058 0
-1.9474199 0.81136948 0.53896576 0
-1.9293485 0.8535006 0.53485477 0
-1.9669309 0.73493159 0.49045917 0
-1.9606094 0.76925665 0.48262724 0
-1.9361403 0.81418508 0.49154368 0
-1.9270265 0.86046886 0.49196252 0
-1.958956 0.73679644 0.43274257 0
-1.9554722 0.77040261 0.43568721 0
-1.9336195 0.81658274 0.44001609 0
-1.9161866 0.86116147 0.44481775 0
-1.9100657 0.89467347 0.43705133 0
-1.9555309 0.74147761 0.36644301 0
-1.9507551 0.77003485 0.38455987 0
-1.9336143 0.82176691 0.38815418 0
-1.912953 0.86476552 0.39403918 0
-1.9075425 0.89517522 0.4003177 0
-1.9581041 0.73779792 0.33563134 0
-1.9500227 0.77333248 0.3307648 0
-1.9309335 0.82086027 0.33810785 0
-1.912091 0.86418784 0.34098253 0
-1.8969339 0.89774418 0.34201422 0
-1.9523261 0.73355037 0.28743699 0
-1.9412634 0.77339375 0.28807563 0
-1.9212248 0.82310569 0.29314408 0
-1.912796 0.87054682 0.29168367 0
-1.8902284 0.90802145 0.29505169 0
-1.945508 0.73514473 0.23809454 0
-1.9347222 0.77523655 0.2372663 0
-1.9182888 0.82552153 0.24284959 0
-1.903321 0.87279141 0.24182753 0
-1.883299 0.90617037 0.24929723 0
-1.9360466 0.74295598 0.17599401 0
-1.9290814 0.77755606 0.18609564 0
-1.9139749 0.82736826 0.18994264 0
-1.8940037 0.86976695 0.19394988 0
-1.8737656 0.91920233 0.19260541 0
-1.9310334 0.74412829 0.13971275 0
-1.9257896 0.78034627 0.14160767 0
-1.9034878 0.83131444 0.14549498 0
-1.8848267 0.87349844 0.14011659 0
-1.8709989 0.91949677 0.15176389 0
-1.8583379 0.98468006 0.15140709 0
-1.850096 1.041603 0.15438525 0
-1.8429297 1.0845255 0.14949097 0
-1.9208446 0.74494278 0.082559362 0
-1.9119792 0.78293681 0.090467602 0
-1.8944566 0.82915145 0.089481771 0
-1.8793825 0.87481797 0.10000505 0
-1.8625612 0.92119443 0.099317655 0
-1.8441868 1.0429847 0.11161846 0
-1.8394091 1.0715998 0.10835564 0
-1.8379147 1.099447 0.12885213 0
-1.9050653 0.74090368 0.050910234 0
-1.8825362 0.7759887 0.058585539 0
-1.8738501 0.7198239 -0.03380549 0
-1.8737845 0.7414282 -0.10283172 0
-1.8600652 0.78889805 -0.10451235 0
-1.8475175 0.83597267 -0.099127188 0
-1.8146405 1.049894 -0.10221496 0
-1.8105195 1.0783554 -0.10072589 0
-2.1754627 0.66025007 1.4725608 8.9437202e-39
-2.1587822 0.67331767 1.469449 8.0228373e-39
-2.1518753 0.67508942 1.4177283 7.7458987e-39
-2.1595044 0.6675697 1.3611511 8.4841896e-39
-2.1444836 0.67666143 1.365966 7.2860051e-39
-2.1542695 0.68314546 1.3396076 5.6272181e-39
-2.1360655 0.68301612 1.2564523 6.2704253e-39
-2.1353831 0.67031735 1.2190102 8.1154211e-39
-2.1161489 0.66654992 1.1724617 6.7314048e-39
-2.1496437 0.1388659 0.68509442 1.5209076e-38
-2.1339967 0.18188788 0.68812585 1.4379316e-38
-2.1246884 0.22909142 0.68479216 1.1614528e-38
-2.1068971 0.26793301 0.68957663 9.308921e-39
-2.1305389 0.23422699 0.65033513 1.0967711e-38
-2.1229169 0.26609564 0.64729393 8.3869591e-39
-2.13076 0.20068823 0.61380053 1.179602e-38
-2.1227005 0.23988707 0.59796458 8.5702587e-39
-2.1099358 0.26612014 0.6035046 7.4642727e-39
-2.1171584 0.23974787 0.55622149 6.9114549e-39
-2.106941 0.27121443 0.55111361 6.724907e-39
-2.1048284 0.27276951 0.50130761 6.0788159e-39
-2.1037467 0.25006002 0.46732703 5.3426928e-39
-2.0927424 0.27113396 0.46234125 5.1572184e-39
-1.9537539 0.74043602 0.18656951 0
-1.9347811 0.7516588 0.076892912 0
-2.2083838 0.64374942 1.4941102 1.1802861e-38
-2.1937592 0.64445364 1.4533741 1.1248608e-38
-2.2142334 0.62168282 1.4057034 1.2725186e-38
-2.1926239 0.65106225 1.4089139 1.0971667e-38
-2.2032955 0.62147272 1.3591144 1.373682e-38
-2.1915748 0.65450281 1.3607434 1.0880196e-38
-2.200613 0.62486786 1.3071296 1.3553513e-38
-2.1854427 0.65668231 1.3119645 1.1436267e-38
-2.181458 0.69662982 1.316566 5.9030875e-39
-2.1978993 0.62827039 1.2549179 1.3647159e-38
-2.177985 0.65994602 1.2614887 1.0053331e-38
-2.1726928 0.69575542 1.2855227 6.0860382e-39
-2.1870017 0.6280508 1.2086208 1.5488535e-38
-2.1810808 0.65771294 1.2098806 1.180505e-38
-2.1817541 0.62927783 1.1706429 1.5580009e-38
-2.1773701 0.65955544 1.1722269 1.0882376e-38
-2.1718752 0.62842673 1.0419619 9.5898281e-39
-2.1595683 0.66365576 1.0433193 1.0237721e-38
-2.1755071 0.6390425 1.0277147 1.6594527e-38
-2.1574636 0.6642105 1.0281575 1.134262e-38
-2.1587012 0.6331594 0.89490902 8.5756762e-39
-2.1543212 0.65871662 0.89115012 4.1488426e-39
-2.1522098 0.63109124 0.86528313 8.2987235e-39
-2.1444092 0.65683585 0.86821806 3.6882246e-39
-2.2436299 -0.11288492 0.68261135 1.963482e-38
-2.222779 -0.05821003 0.67415857 1.8251886e-38
-2.2050338 -0.014881492 0.67429638 1.7329571e-38
-2.1884832 0.037081331 0.67774963 1.6960069e-38
-2.1835063 0.082317218 0.68000776 1.6499094e-38
-2.1638515 0.12305464 0.67418224 1.5576776e-38
-2.1629539 0.17943309 0.6780622 1.4931044e-38
-2.1654608 0.21787642 0.68706715 1.4010532e-38
-2.1884797 0.26801026 0.70253897 1.0231242e-38
-2.2284794 -0.050462246 0.64001256 1.723521e-38
-2.208071 -0.010783598 0.62949371 1.6220337e-38
-2.1853359 0.038839504 0.63232267 1.5851553e-38
-2.1772645 0.083776757 0.6348362 1.529838e-38
-2.1584542 0.12720452 0.63840878 1.4744845e-38
-2.1577704 0.18057485 0.64046949 1.382361e-38
-2.1433706 0.22217663 0.63338017 1.1796383e-38
-2.2221527 -0.048982814 0.59422529 1.5482769e-38
-2.2079389 -0.0012847036 0.58207864 1.4375337e-38
-2.1914151 0.041444525 0.58563995 1.4006911e-38
-2.178705 0.086094528 0.58874524 1.3546292e-38
-2.1553142 0.12905483 0.59313816 1.3269348e-38
-2.1510239 0.1799532 0.59401023 1.234739e-38
-2.1392415 0.22193895 0.60212588 1.0873701e-38
-2.202297 1.0579824e-06 0.53317237 1.2807642e-38
-2.1867678 0.043390632 0.5321461 1.2255187e-38
-2.1687157 0.087516412 0.53625 1.1978243e-38
-2.1553047 0.13176225 0.53958857 1.1609102e-38
-2.151969 0.18502595 0.54172325 1.077934e-38
-2.1312335 0.23376466 0.54478538 7.9245236e-39
-2.1255338 0.2648508 0.54813564 6.6337904e-39
-2.1985667 0.015412495 0.49057686 1.1701295e-38
-2.1905191 0.046217829 0.477182 1.0778974e-38
-2.1656091 0.08972533 0.48270735 1.068678e-38
-2.1484101 0.13351129 0.48687184 1.0318715e-38
-2.1449625 0.18678071 0.48891681 9.4896773e-39
-2.1271534 0.23748751 0.49340549 7.1865956e-39
-2.116225 0.26702756 0.48076713 5.9876951e-39
-2.1839912 0.049519777 0.43344849 9.6733427e-39
-2.1608624 0.091351658 0.43703574 9.396397e-39
-2.1452026 0.13541909 0.44116056 9.3042e-39
-2.1375797 0.1880651 0.44391489 8.1078218e-39
-2.1248915 0.23791479 0.44565961 6.9089227e-39
-2.1104889 0.27558833 0.44747388 4.9728229e-39
-2.1750774 0.065065101 0.37086889 8.2904054e-39
-2.1697412 0.094667986 0.38835564 8.3833213e-39
-2.1404781 0.1387582 0.39002591 7.8305077e-39
-2.1370165 0.19236468 0.39512053 7.2773381e-39
-2.1204226 0.24196319 0.39441112 5.526347e-39
-2.1076226 0.2769435 0.39688703 3.8671886e-39
-2.1708598 0.066051379 0.34034407 7.8294273e-39
-2.1574671 0.095771655 0.33621195 7.3677274e-39
-2.1407561 0.13854928 0.33634031 6.9993051e-39
-2.1339667 0.19141479 0.34202409 5.9869552e-39
-2.1153831 0.24411921 0.34119332 4.4192764e-39
-2.1066146 0.27735442 0.34003571 3.0367091e-39
-2.1634789 0.06777744 0.28692567 6.4461243e-39
-2.1523979 0.099800393 0.28043443 3.9600933e-39
-2.1273868 0.14070122 0.28967956 2.5778889e-39
-2.1268542 0.19462897 0.29053044 4.6958563e-39
-2.1091371 0.24557982 0.29598945 3.2210947e-39
-2.1047816 0.27566326 0.29756323 2.390618e-39
-2.1516664 0.10292359 0.23831338 1.2893109e-39
-2.1285427 0.1378658 0.24749023 1.2882319e-39
-2.1206424 0.21940921 0.24534491 3.8664501e-39
-2.1073515 0.24789016 0.24949825 2.391327e-39
-2.1029863 0.27806967 0.25110963 1.653769e-39
-2.1460621 0.10129012 0.19440165 5.6051939e-45
-2.1164513 0.22038923 0.21501452 2.8526555e-39
-2.1026464 0.25162077 0.20823374 1.4704483e-39
-2.0910211 0.28178757 0.20128557 8.2651947e-40
-2.1035893 0.26727557 0.17189503 9.1835496e-40
-2.4153585 -0.38206384 1.3354847 2.3509886e-38
-2.413208 -0.38156107 1.3199238 2.3509886e-38
-2.404608 -0.37954983 1.2576798 2.3509886e-38
-2.3673627 -0.37310708 1.100373 2.3509886e-38
-2.1934111 0.64315933 1.0595753 1.0053699e-38
-2.1869466 0.6594848 1.0296581 1.1341538e-38
-2.3453946 -0.51578224 0.65823525 1.3271513e-38
-2.3195293 -0.33714283 0.6675812 1.9173479e-38
-2.3029776 -0.28588116 0.65917397 2.0003237e-38
-2.2902155 -0.24852879 0.66226763 2.0557128e-38
-2.286459 -0.20439795 0.65991473 2.0280183e-38
-2.2749212 -0.15803804 0.66270661 1.9819205e-38
-2.2570956 -0.11197786 0.66411787 1.9173479e-38
-2.2500751 -0.077445552 0.66415989 1.8435557e-38
-2.3142035 -0.34340143 0.62049198 1.7050096e-38
-2.3030567 -0.28076315 0.60818172 1.732704e-38
-2.2823405 -0.2010729 0.61525303 1.7880577e-38
-2.2699754 -0.15653673 0.61624861 1.7603989e-38
-2.2523525 -0.1105158 0.61977261 1.7327403e-38
-2.2425859 -0.06643568 0.62050235 1.6773869e-38
-2.2360113 -0.033419117 0.60876733 1.6035943e-38
-2.2987564 -0.27975753 0.57705975 1.5943381e-38
-2.2849305 -0.20148487 0.56245005 1.5574597e-38
-2.2652402 -0.1550436 0.56965727 1.575935e-38
-2.2522013 -0.10888395 0.57286698 1.5482404e-38
-2.2362189 -0.064946786 0.57442343 1.4929229e-38
-2.2312119 -0.028593302 0.57824856 1.4744479e-38
-2.269505 -0.18399374 0.50489938 1.372996e-38
-2.2610841 -0.15325822 0.51498878 1.3914713e-38
-2.2506361 -0.10697746 0.51800197 1.354557e-38
-2.2310972 -0.061263502 0.52232432 1.3084948e-38
-2.2221675 -0.02277495 0.51701069 1.2531055e-38
-2.2973988 -0.39950329 0.43050927 1.1154263e-38
-2.2702105 -0.18303475 0.47300902 1.3453375e-38
-2.2581944 -0.14643081 0.46280488 1.6867495e-38
-2.2419162 -0.10525268 0.46410197 1.5483486e-38
-2.2321377 -0.059130542 0.46706736 1.4376777e-38
-2.2136903 -0.0079989582 0.47022825 1.1056288e-38
-2.2592618 -0.15045865 0.42795143 2.2861653e-38
-2.2226562 -0.096957758 0.43620169 2.2677268e-38
-2.2263348 -0.058216989 0.43647414 2.2123378e-38
-2.2109423 0.0033044219 0.43186179 1.3732854e-38
-2.1995411 0.034364074 0.41230097 9.5807897e-39
-2.1930115 0.060580581 0.39315835 8.7521024e-39
-2.1844897 0.067511231 0.33710721 7.6450332e-39
-2.1770613 0.069248229 0.28334853 6.35393e-39
-2.1759026 0.084332913 0.29183051 6.7216322e-39
-2.1652179 0.097941801 0.22715381 8.2869568e-40
-2.1620591 0.094977126 0.2000739 8.4077908e-45
-2.5422046 -0.92429268 1.4401565 6.6362735e-39
-2.5353668 -0.87706709 1.4426272 7.0065035e-39
-2.527389 -0.82197076 1.4455097 7.7437154e-39
-2.5287693 -0.77673924 1.4499614 8.2965361e-39
-2.5197873 -0.65994143 1.4581573 9.5890952e-39
-2.5151985 -0.62825 1.4598153 1.0142995e-38
-2.5060213 -0.56486678 1.4631314 1.1529183e-38
-2.4883463 -0.51581484 1.4629173 1.3373111e-38
-2.4853275 -0.47670883 1.4656584 1.5586898e-38
-2.464709 -0.38907087 1.468158 2.3509886e-38
-2.425863 -0.066017956 1.4871448 2.3509886e-38
-2.428014 -0.026109844 1.491318 2.341769e-38
-2.4234257 0.0055817217 1.492976 2.3509886e-38
-2.5556018 -0.94388366 1.4035513 6.5440764e-39
-2.54459 -0.92095435 1.4126492 6.7288292e-39
-2.5248823 -0.87645394 1.4138675 7.098339e-39
-2.5167084 -0.81923735 1.416324 7.8359125e-39
-2.5243258 -0.78329015 1.4206437 8.297255e-39
-2.5090058 -0.62688613 1.4276575 1.041958e-38
-2.4982941 -0.55540526 1.4159256 1.2358233e-38
-2.4893608 -0.51553094 1.4325796 1.3834093e-38
-2.4720328 -0.46874118 1.432385 1.6968746e-38
-2.4562111 -0.4245159 1.4475408 2.1484838e-38
-2.4550028 -0.38755664 1.4353247 2.3509886e-38
-2.425982 -0.063232072 1.456762 2.3509886e-38
-2.4236276 -0.025084049 1.4595711 2.3509886e-38
-2.4212322 0.0060946345 1.4771025 2.3509886e-38
-2.5510767 -0.95507294 1.3568552 6.6359119e-39
-2.5383985 -0.91254526 1.3675646 7.0972572e-39
-2.5134602 -0.86758578 1.3655987 7.4667642e-39
-2.5156591 -0.81912374 1.3703065 8.2961718e-39
-2.50319 -0.61523569 1.3845279 1.1340826e-38
-2.492794 -0.55156749 1.3790256 1.3186919e-38
-2.4840071 -0.51726168 1.3866054 1.4662781e-38
-2.4715302 -0.46798724 1.386418 1.7889617e-38
-2.4449234 -0.41910046 1.391489 2.249754e-38
-2.4431512 -0.38554066 1.386965 2.3509886e-38
-2.4216361 -0.05523701 1.4102926 2.3509886e-38
-2.4159513 -0.023288891 1.4040139 2.3509886e-38
-2.4124591 0.0081462264 1.4136087 2.3509886e-38
-2.5452595 -0.95294708 1.3156257 6.8192242e-39
-2.5277436 -0.91356879 1.3151578 7.1894529e-39
-2.5136976 -0.86217672 1.317868 7.8348293e-39
-2.5124567 -0.81099594 1.3204459 8.7564338e-39
-2.5151503 -0.78124988 1.3234965 9.1262996e-39
-2.5010433 -0.64024907 1.3399353 1.0787291e-38
-2.4907689 -0.57660943 1.3353148 1.2909971e-38
-2.4762306 -0.51247144 1.3375349 1.5584378e-38
-2.4640193 -0.46438771 1.3389386 1.88112e-38
-2.4482846 -0.41611785 1.3396339 2.323402e-38
-2.4334826 -0.38403541 1.3544092 2.3509886e-38
-2.4164126 -0.060139179 1.3655155 2.3509886e-38
-2.4063723 -0.016708717 1.3587687 2.3509886e-38
-2.4069757 0.0094284564 1.373925 2.3509886e-38
-2.539619 -0.95545524 1.2704434 6.9117814e-39
-2.5280309 -0.91229653 1.2613455 7.4656824e-39
-2.5061054 -0.86448127 1.268715 8.111056e-39
-2.5041285 -0.81131989 1.2654378 8.8493497e-39
-2.47207 -0.50684881 1.2908467 1.6136832e-38
-2.4575806 -0.46089774 1.2898167 1.9732426e-38
-2.4435275 -0.41475368 1.2927344 2.341805e-38
-2.430135 -0.38249698 1.2927659 2.3509886e-38
-2.4085102 -0.057270586 1.3094845 2.3509886e-38
-2.4042704 -0.023108944 1.3165717 2.3509886e-38
-2.4014926 0.010710686 1.3342414 2.3509886e-38
-2.5293076 -0.941562 1.2088941 7.3731267e-39
-2.5207586 -0.90489751 1.2094649 7.9259445e-39
-2.5111578 -0.85661232 1.2204796 8.4794826e-39
-2.505754 -0.80774015 1.2132564 9.1255793e-39
-2.4593251 -0.4963972 1.2366444 1.7335011e-38
-2.4473708 -0.46086442 1.2435479 2.037707e-38
-2.429924 -0.41249073 1.2442721 2.341805e-38
-2.4331074 -0.38168105 1.2394509 2.3509886e-38
-2.3958628 -0.021142855 1.2557235 2.3509886e-38
-2.5284886 -0.98347121 1.1550256 7.0043357e-39
-2.5166752 -0.89978802 1.1616753 8.0185017e-39
-2.5021062 -0.85660225 1.1671526 8.572037e-39
-2.4985411 -0.81395108 1.1692855 9.3092489e-39
-2.4711304 -0.58732629 1.1757511 1.3369144e-38
-2.4525795 -0.50711465 1.1789287 1.7426841e-38
-2.4379742 -0.4588632 1.1880774 2.1298652e-38
-2.423208 -0.41083324 1.1893829 2.3509527e-38
-2.417119 -0.37945321 1.1985664 2.3509886e-38
-2.3909302 -0.048056476 1.1880641 2.3509886e-38
-2.3886356 -0.032210678 1.1888931 2.3509886e-38
-2.3817527 0.015326709 1.1913801 2.3509886e-38
-2.5128324 -0.9338823 1.0940189 7.7411931e-39
-2.5042491 -0.89577043 1.1112878 8.1106945e-39
-2.4899027 -0.85134542 1.1164279 8.7557094e-39
-2.4893634 -0.81892395 1.1205935 9.3096062e-39
-2.4554741 -0.53773737 1.1147442 1.6226855e-38
-2.4495521 -0.50607026 1.1318846 1.797929e-38
