# .PCD v0.7 - Point Cloud Data file format
VERSION 0.7
FIELDS x y z rgb
SIZE 4 4 4 4
TYPE F F F F
COUNT 1 1 1 1
WIDTH 1014
HEIGHT 1
VIEWPOINT 0 0 0 1 0 0 0
POINTS 1014
DATA ascii
1.3053136 -0.53003865 0.38114211 1.3180753e-38
1.3011842 -0.56067014 0.37684497 1.8999182e-38
1.1564558 0.72488248 0.30810145 1.4012985e-45
1.2826312 -0.19312151 0.33889738 1.5290778e-38
1.2867613 -0.23218772 0.33970347 1.6028713e-38
1.2908654 -0.28300586 0.33990297 1.5384063e-38
1.2908299 -0.33138892 0.33943257 1.464866e-38
1.2948227 -0.38362864 0.33769616 1.4464986e-38
1.2990983 -0.4351896 0.33914849 1.4005094e-38
1.3019226 -0.485504 0.33757797 1.2438854e-38
1.3027911 -0.53413093 0.33789518 1.3920489e-38
1.3012593 -0.56925404 0.33592829 1.8445656e-38
1.1283607 0.7310257 0.28346798 0
1.1290522 0.71814191 0.27321556 1.4012985e-45
1.0803711 0.72861582 0.21804008 0
1.099926 0.71686351 0.23270819 0
1.0642819 0.72613519 0.19130132 0
1.0851841 0.71957082 0.1840696 0
1.040621 0.72159272 0.14579406 0
1.058461 0.712152 0.14866611 0
1.0129654 0.71995568 0.10385665 0
0.98435599 0.71818143 0.065526992 0
0.9588539 0.71399057 0.025749888 2.7622676e-40
0.96583301 0.67789847 0.0032319091 7.7372372e-39
0.97008365 0.63063741 0.0037573241 8.4740848e-39
0.97408801 0.58067733 0.0074401163 9.4871535e-39
0.9824509 0.52990103 0.0050925277 1.0775734e-38
0.98813981 0.48019415 0.0062979721 1.178845e-38
0.99155098 0.43279082 0.0068654679 1.1880287e-38
0.9963339 0.38305113 0.0039148591 1.3260343e-38
1.0024686 0.33143201 0.0044899844 1.3444373e-38
1.0077584 0.28395829 0.005273547 1.3443647e-38
1.0143719 0.23678258 0.0050711296 1.510317e-38
1.0212808 0.18065953 0.0055235885 1.3996099e-38
1.0248358 0.13267878 0.007611122 1.5102814e-38
1.0300844 0.085082404 0.0084364675 1.5010617e-38
1.0345318 0.046089649 0.0090058111 1.6670862e-38
0.93422836 0.7111994 0.0064533614 2.7551069e-40
0.93475837 0.67629296 -0.00034496561 7.4617251e-39
0.94468921 0.62917346 0.0015524291 8.5666378e-39
0.94307214 0.57784164 0.0025488995 9.3945978e-39
0.95246118 0.5304302 0.00090089068 1.0499508e-38
0.9561258 0.47944647 0.0014407896 1.1420744e-38
0.96111149 0.42970914 0.0038519762 1.1696252e-38
0.96874374 0.37989849 0.0031081103 1.2155793e-38
0.97229892 0.33059829 6.6962093e-05 1.3352529e-38
0.97762293 0.28227696 0.0023562573 1.3351814e-38
0.983208 0.22981402 0.0034144185 1.4734024e-38
0.98976725 0.17821822 0.0028980635 1.4733665e-38
0.99546951 0.12934887 0.004251685 1.3719878e-38
0.99707884 0.082278408 0.0062926076 1.5655263e-38
1.0062191 0.034626789 0.004197862 1.5747106e-38
1.0112185 -0.016678389 0.0045205615 1.5471236e-38
1.0172005 -0.067152411 0.0050849579 1.5840739e-38
1.0202987 -0.1183767 0.003615465 1.4920233e-38
1.025136 -0.16784862 0.0053339861 1.5289736e-38
1.0311229 -0.21701512 0.0053619407 1.390824e-38
1.0322154 -0.26497564 0.0063290261 1.4092992e-38
1.0443952 -0.31585938 0.0052680634 1.3910404e-38
1.0420716 -0.36761862 0.0035461448 1.3265392e-38
1.0496223 -0.41618478 0.0026826523 1.2437433e-38
1.0519705 -0.4663713 0.0046553873 1.1239612e-38
1.0605762 -0.51402807 0.0061963461 1.0594603e-38
1.0641558 -0.56373423 0.0052810572 1.0412369e-38
1.0758555 -0.59879261 0.0039957426 1.032053e-38
1.0347321 -0.58531237 -0.0028392412 1.0413101e-38
1.2387574 0.74895728 0.36409953 1.3822198e-39
1.2349291 0.71805704 0.36797324 8.2922005e-39
1.2452624 0.66976207 0.36860296 8.843205e-39
1.2499781 0.6181075 0.36858186 9.4874955e-39
1.2527981 0.57152003 0.36696813 9.9477575e-39
1.2570603 0.52200347 0.37085691 1.0591685e-38
1.260711 0.46931559 0.3715761 1.1235252e-38
1.260391 0.42388576 0.3730264 1.2247965e-38
1.2601874 0.36699414 0.37163249 1.3077364e-38
1.2634883 0.31488109 0.37044409 1.4182992e-38
1.2680035 0.27217147 0.37132534 1.4826927e-38
1.2296674 0.75464755 0.32594112 8.2832013e-40
1.2357972 0.71705049 0.32499215 7.6461108e-39
1.2458656 0.67073166 0.32249305 8.6584593e-39
1.2524679 0.61786079 0.32922569 9.6715266e-39
1.2544379 0.56625211 0.32745287 1.0038873e-38
1.2594132 0.51694036 0.33147791 1.0499128e-38
1.2596219 0.46755373 0.33030978 1.1143058e-38
1.2614596 0.41727921 0.33156362 1.2616383e-38
1.2620242 0.36786842 0.33209923 1.3076281e-38
1.2638476 0.31729904 0.33657393 1.4182634e-38
1.2666926 0.26792133 0.33725139 1.4551054e-38
1.2695391 0.21874076 0.34069911 1.5195704e-38
1.2723284 0.16695625 0.34024492 1.5471931e-38
1.273304 0.11921018 0.34009853 1.5288617e-38
1.2775941 0.071170099 0.34055713 1.6578277e-38
1.2771168 0.017321013 0.33975324 1.6393524e-38
1.2789085 -0.031852327 0.34009185 1.6762307e-38
1.2802286 -0.07678578 0.33818486 1.703998e-38
1.2850223 -0.12210597 0.33798912 1.6211309e-38
1.1973557 0.72226954 0.29165903 2.7587083e-40
1.2637417 0.36821401 0.295544 1.3352145e-38
1.2643597 0.3192786 0.29531613 1.3905326e-38
1.2678003 0.26459292 0.29817417 1.4826202e-38
1.2720494 0.21572632 0.29869851 1.5195343e-38
1.2752335 0.16772354 0.29895374 1.611658e-38
1.277353 0.11686247 0.29840288 1.464144e-38
1.2771199 0.067074306 0.29706129 1.6208051e-38
1.2763491 0.015473254 0.29851666 1.6484643e-38
1.2800758 -0.033343732 0.29777709 1.6945618e-38
1.2818365 -0.084065601 0.30291674 1.6946702e-38
1.2842927 -0.13553655 0.30635574 1.6394971e-38
1.2870767 -0.18276532 0.30744746 1.6119101e-38
1.2899971 -0.23276302 0.30851284 1.5751403e-38
1.2924762 -0.28231734 0.30886343 1.5015279e-38
1.2944179 -0.33269203 0.30640909 1.4647581e-38
1.299233 -0.38197643 0.30485412 1.4372072e-38
1.3028579 -0.43127099 0.30692372 1.3819262e-38
1.3042305 -0.48021194 0.30649599 1.1701289e-38
1.307826 -0.53119653 0.30731854 1.3271866e-38
1.3058796 -0.56895638 0.30745605 1.8353462e-38
1.1614726 0.71486461 0.25424352 0
1.2722809 0.053016178 0.264016 1.5192832e-38
1.2770617 0.0077962875 0.26494905 1.6852706e-38
1.2792361 -0.036028057 0.26520625 1.7221486e-38
1.282136 -0.086572826 0.26604894 1.7221846e-38
1.2856185 -0.12774907 0.26677766 1.6762674e-38
1.2920797 -0.1808899 0.26715729 1.5565213e-38
1.2938254 -0.23410153 0.26652256 1.5473737e-38
1.2972343 -0.28424057 0.26612613 1.519859e-38
1.2977252 -0.33634534 0.2660816 1.4370271e-38
1.3026605 -0.38465843 0.26331344 1.381818e-38
1.3063016 -0.43529999 0.26616433 1.3542314e-38
1.3079226 -0.48338085 0.26484683 1.078006e-38
1.3080444 -0.53321588 0.26305363 1.3918326e-38
1.3092062 -0.58042318 0.26750371 1.7983609e-38
1.3168402 -0.61063981 0.23995939 1.7614473e-38
1.144676 0.73200327 0.19807079 0
1.1409311 0.72643793 0.21740624 0
1.3041434 -0.53897715 0.2309306 1.0048655e-38
1.3089242 -0.5841971 0.23186365 1.7891057e-38
1.1398044 0.72983563 0.16915384 0
1.1031756 0.72134012 0.16759834 0
1.0831518 0.72336936 0.10529372 0
1.0876255 0.71841317 0.12938473 0
1.044224 0.72081453 0.075020581 0
1.0494192 0.71533376 0.082519978 0
1.0296543 0.7197479 0.041384544 0
1.0349979 0.70300394 0.023050215 3.9600947e-39
1.0455306 0.64002061 0.010854747 8.750313e-39
1.0497479 0.58825666 0.012752321 1.0131085e-38
1.0564964 0.54420984 0.012278583 1.0959056e-38
1.0024378 0.71728617 0.0090931319 1.012717e-39
1.0085161 0.68602759 0.0041898154 7.3688163e-39
1.011462 0.63699824 0.0065046214 8.7506717e-39
1.0169649 0.58574784 0.0084993504 9.8548613e-39
1.0243227 0.53778464 0.008394327 1.0867931e-38
1.0284526 0.48831707 0.0085034035 1.1420385e-38
1.0365961 0.43879759 0.0068698786 1.2064318e-38
1.0357068 0.38920644 0.0056590699 1.3536927e-38
1.0433528 0.33758792 0.0063913725 1.3260339e-38
1.0428429 0.28742373 0.0065129064 1.3904985e-38
1.0567348 0.23786658 0.0084721707 1.427305e-38
1.0579147 0.18950415 0.008521881 1.40883e-38
1.0640714 0.14004695 0.010262515 1.4918061e-38
1.0700195 0.089244075 0.011555459 1.5010615e-38
1.0705132 0.040924557 0.0094267987 1.5563067e-38
1.072176 -0.012113228 0.0088907145 1.6024408e-38
1.078949 -0.060502931 0.010327484 1.5749262e-38
1.0848389 -0.10969427 0.0092500709 1.5473041e-38
1.0914385 -0.15874857 0.0092024468 1.5381208e-38
1.0978026 -0.20838585 0.010257687 1.4645088e-38
1.1012673 -0.25841522 0.011362519 1.4461058e-38
1.1054482 -0.30837062 0.010241892 1.4001882e-38
1.1131949 -0.36000556 0.011607554 1.252783e-38
1.1183202 -0.4080666 0.010455336 1.1975378e-38
1.1240094 -0.46009448 0.0094758533 1.10545e-38
1.1283422 -0.50907785 0.012304928 1.0595321e-38
1.1362748 -0.56002718 0.010532644 1.0779717e-38
1.1451771 -0.6070314 0.010090616 1.004359e-38
1.1654112 -0.63131374 0.013883855 9.3975055e-39
1.0689445 -0.27226514 0.0041826032 1.5107137e-38
1.0795515 -0.36494142 0.0055009983 1.2620387e-38
1.0861816 -0.40980136 0.0050411485 1.3081369e-38
1.0894592 -0.45993593 0.0075601004 1.1422564e-38
1.0968742 -0.51731783 0.0077544712 1.0503133e-38
1.1036227 -0.56201893 0.0071923994 1.0964472e-38
1.1095016 -0.60232258 0.0068365 1.0688965e-38
1.244921 0.7949506 0.31508592 0
1.2392859 0.71172142 0.29373392 7.5521103e-39
1.2530396 0.66158974 0.2971082 9.2105526e-39
1.2555616 0.61588413 0.29985645 9.7630033e-39
1.2580066 0.5645259 0.29726008 1.0499488e-38
1.2614627 0.51919711 0.30019584 1.0774997e-38
1.263953 0.46906316 0.29907271 1.1234531e-38
1.2671525 0.43880033 0.29969713 1.1878817e-38
1.2435935 0.74565023 0.22784469 9.208787e-40
1.2440174 0.71176368 0.25327566 7.9205369e-39
1.2503998 0.66641212 0.25802091 8.7495759e-39
1.2584414 0.61621678 0.25760368 1.022254e-38
1.2611375 0.56774956 0.25650063 1.0498768e-38
1.2633171 0.5174135 0.25921282 1.1142335e-38
1.2637489 0.46789151 0.26094326 1.1509678e-38
1.2650898 0.41827628 0.26519558 1.2430196e-38
1.2667198 0.3663013 0.26547644 1.335143e-38
1.2678826 0.31581458 0.26510772 1.4180832e-38
1.2715566 0.26662937 0.26631382 1.4457062e-38
1.2732906 0.21856362 0.26645443 1.5102063e-38
1.2760887 0.16741812 0.26673982 1.5931825e-38
1.2780724 0.12001754 0.26581123 1.4640724e-38
1.281534 0.073176377 0.26351121 1.648284e-38
1.2818558 0.03076721 0.26172438 1.5099913e-38
1.2837808 -0.010213725 0.26348695 1.6669755e-38
1.2156351 0.73954666 0.19472888 3.6734479e-40
1.2043843 0.73120666 0.21471193 4.5954042e-40
1.2578037 0.56288648 0.21871892 1.1880989e-38
1.2632732 0.5111503 0.21978644 1.187882e-38
1.266542 0.47183681 0.21928868 1.1693349e-38
1.2700889 0.41036481 0.22138634 1.2522028e-38
1.2714739 0.36482191 0.22626892 1.3534382e-38
1.2728438 0.31461093 0.22405508 1.445706e-38
1.2755423 0.26748762 0.22466519 1.4640727e-38
1.278379 0.21519235 0.2253969 1.5193542e-38
1.280982 0.165005 0.22445384 1.5930747e-38
1.2829676 0.11708326 0.22347793 1.4178667e-38
1.2832365 0.066156052 0.22553745 1.6851622e-38
1.2835724 0.015347086 0.22792456 1.7311882e-38
1.2851014 -0.03409259 0.23091003 1.6759789e-38
1.2875926 -0.083408274 0.22966787 1.6760509e-38
1.2926912 -0.13553336 0.23287508 1.6577921e-38
1.2958581 -0.18466741 0.23179254 1.6486445e-38
1.2985117 -0.23320407 0.23246476 1.5749603e-38
1.3009214 -0.28232267 0.23249236 1.5013121e-38
1.3013058 -0.33173871 0.23809889 1.4553222e-38
1.3036146 -0.38578802 0.23478875 1.4369556e-38
1.3095224 -0.43232805 0.23631194 1.4186243e-38
1.3086908 -0.481507 0.23498568 1.0871174e-38
1.1976736 0.73820734 0.18235746 9.1841101e-41
1.1841445 0.72952229 0.17552814 1.8367379e-40
1.2852547 0.05134768 0.19001004 1.7034567e-38
1.2873588 0.0094690472 0.18897972 1.6391002e-38
1.2909586 -0.034768663 0.18945339 1.675907e-38
1.2930028 -0.084249593 0.18941721 1.6391368e-38
1.2953436 -0.13906801 0.18971559 1.620842e-38
1.2949619 -0.18419823 0.18896702 1.6117301e-38
1.3002632 -0.23455608 0.19133922 1.5564847e-38
1.302135 -0.28727016 0.18863723 1.5104953e-38
1.3039083 -0.33630395 0.19378462 1.4552862e-38
1.3069251 -0.38504687 0.19562098 1.3908933e-38
1.3109336 -0.43534386 0.19594219 1.3541231e-38
1.3115556 -0.48544392 0.19980791 1.1791686e-38
1.3132415 -0.5360505 0.20115581 1.3917974e-38
1.3113911 -0.58287847 0.20275298 1.770595e-38
1.3237429 -0.62052381 0.19877234 1.733825e-38
1.1601589 0.73086011 0.097461432 0
1.145787 0.72232687 0.11948666 0
1.3032582 -0.37082869 0.15945724 1.3263195e-38
1.3127055 -0.4601911 0.16130111 1.2251578e-38
1.3145454 -0.48798683 0.16239855 1.1514018e-38
1.3140898 -0.53844869 0.16204855 1.4195289e-38
1.3139861 -0.58421361 0.15844575 1.7336455e-38
1.3241584 -0.62576753 0.16166475 1.6968755e-38
1.1320322 0.73067415 0.091103047 0
1.1325977 0.72198516 0.094037265 0
1.1003191 0.73463756 0.055301394 0
1.1015646 0.71860838 0.042760637 0
1.1245646 0.56378073 0.022381153 1.0867578e-38
1.0546863 0.72297454 0.010559645 2.7551209e-40
1.0751803 0.69504523 0.012052622 6.5397759e-39
1.0831301 0.64393461 0.01273432 8.8421485e-39
1.0860181 0.59496373 0.014187302 9.9470569e-39
1.08764 0.54496002 0.014526036 1.1051967e-38
1.0913346 0.49297345 0.01197144 1.1881009e-38
1.0990582 0.44478703 0.011249449 1.2708248e-38
1.1054888 0.39534938 0.0095057748 1.2984471e-38
1.1133101 0.34539774 0.0099435113 1.3720957e-38
1.1146798 0.29476544 0.012273278 1.3535843e-38
1.1219466 0.24642962 0.014226642 1.3719878e-38
1.1279762 0.19568622 0.013510372 1.4549637e-38
1.1326845 0.1446445 0.015008774 1.4733667e-38
1.1386275 0.098456524 0.015291121 1.4640755e-38
1.1430285 0.047575854 0.016223457 1.5378682e-38
1.1494317 -0.0025559962 0.016398814 1.5287929e-38
1.1509104 -0.050050117 0.016820934 1.5840379e-38
1.1588697 -0.10258895 0.01510438 1.5841466e-38
1.1651464 -0.15173647 0.016155209 1.5842182e-38
1.1677327 -0.20036948 0.016741004 1.5197899e-38
1.1766317 -0.25023776 0.016082849 1.5013872e-38
1.185868 -0.29873177 0.016402986 1.3724569e-38
1.1872082 -0.35129198 0.017576303 1.2619667e-38
1.1924055 -0.40057695 0.019260731 1.2159767e-38
1.1951909 -0.45059639 0.016304996 1.1884627e-38
1.202003 -0.49727806 0.018207755 1.1331813e-38
1.2075763 -0.55104452 0.017716911 1.1240701e-38
1.2115777 -0.59794855 0.018175807 1.0872633e-38
1.2200954 -0.63651603 0.017492261 1.0781875e-38
1.073375 0.37550533 0.0054152869 1.3259631e-38
1.0781741 0.33011115 0.0063519143 1.4552141e-38
1.0820134 0.29379573 0.0071013235 1.4274135e-38
1.0966439 0.19479036 0.0063498281 1.4549267e-38
1.0997698 0.12583712 0.010566857 1.2889756e-38
1.1012096 0.11221886 0.010847893 1.3905366e-38
1.109128 0.037318401 0.012393322 1.556271e-38
1.1170087 -0.0057162493 0.011045899 1.5564153e-38
1.1189661 -0.055739731 0.014313545 1.6670141e-38
1.1276 -0.10589731 0.013112988 1.6763058e-38
1.1345623 -0.15956843 0.011780467 1.5842549e-38
1.1390378 -0.20621285 0.014624145 1.5565249e-38
1.1435461 -0.25580102 0.0145646 1.501351e-38
1.148072 -0.30891782 0.013060953 1.2527823e-38
1.1523125 -0.35000876 0.014748838 1.280478e-38
1.1594055 -0.40650105 0.014886763 1.2344883e-38
1.1649084 -0.4560076 0.014112022 1.2253402e-38
1.1699891 -0.50365245 0.015565898 1.1055588e-38
1.177871 -0.55069286 0.014571812 1.1148141e-38
1.1856787 -0.60227251 0.01404592 1.1242131e-38
1.196106 -0.63894331 0.01225188 1.0504572e-38
1.2486515 0.74519259 0.22094718 5.5138152e-40
1.2536423 0.69798541 0.22192124 9.0265285e-39
1.2621608 0.66277045 0.22078487 9.9463184e-39
1.2640977 0.62734586 0.22420993 1.0222538e-38
1.2497435 0.74460447 0.17551216 3.5927527e-39
1.2490637 0.71397066 0.18727639 8.565186e-39
1.2621353 0.66910708 0.18534479 9.6697259e-39
1.2655904 0.61676407 0.18668446 1.0682077e-38
1.2682276 0.56664717 0.18814185 1.1695509e-38
1.2701459 0.51693344 0.1873394 1.1785907e-38
1.2725866 0.46511745 0.18848577 1.1968857e-38
1.273598 0.41753292 0.18840006 1.2613504e-38
1.2775729 0.36654541 0.18945011 1.3810966e-38
1.2775319 0.32093182 0.19218096 1.4548171e-38
1.2810411 0.26808822 0.19360593 1.5192097e-38
1.2840579 0.21752709 0.19352344 1.5837827e-38
1.2841139 0.16582659 0.19309065 1.5837105e-38
1.2866845 0.13262272 0.19417736 1.6482836e-38
1.2921746 0.080694817 0.19524887 1.7311875e-38
1.2521627 0.74570411 0.14757749 1.6552025e-39
1.2474604 0.71540332 0.1499463 7.3680848e-39
1.2624686 0.64822161 0.14958879 9.9463128e-39
1.2671061 0.6043545 0.15049401 1.123561e-38
1.2680552 0.56894642 0.15246454 1.1419644e-38
1.2737281 0.52057177 0.1532146 1.1509676e-38
1.2754865 0.46666467 0.15137526 1.2060689e-38
1.2775998 0.41414636 0.15388533 1.2797176e-38
1.279346 0.36374366 0.15426311 1.3626214e-38
1.2806163 0.31253916 0.15890893 1.4548174e-38
1.2841995 0.26337236 0.15623227 1.5192099e-38
1.2858503 0.21427909 0.15561655 1.5560883e-38
1.2880106 0.16681141 0.15495691 1.5928944e-38
1.2882164 0.11813868 0.1582059 1.4916231e-38
1.2899497 0.066398136 0.15863141 1.6574309e-38
1.2878287 0.013199203 0.15865996 1.6112976e-38
1.2922108 -0.035283647 0.15898779 1.6850898e-38
1.2949727 -0.084011436 0.15791461 1.6483199e-38
1.2962534 -0.13087314 0.16004768 1.593147e-38
1.3005564 -0.18388093 0.15711805 1.6485723e-38
1.3039746 -0.23296177 0.1629003 1.5564125e-38
1.3017604 -0.26279408 0.16292688 1.4458501e-38
1.3077495 -0.31944272 0.16409579 1.4366304e-38
1.3167329 -0.40441567 0.165849 1.4923093e-38
1.2044246 0.73796582 0.10115626 2.8025969e-45
1.2857635 0.16684327 0.11883143 1.63892e-38
1.29126 0.11485261 0.11990413 1.611477e-38
1.2915227 0.061585329 0.12090448 1.6849814e-38
1.2909002 0.01333186 0.11594287 1.6205522e-38
1.2922699 -0.039332367 0.11612383 1.6205535e-38
1.2947071 -0.088835023 0.11425009 1.6298448e-38
1.2983496 -0.13719067 0.1149126 1.6023307e-38
1.2990201 -0.18496744 0.11925575 1.6116942e-38
1.3024998 -0.23649171 0.12273321 1.5379377e-38
1.3041503 -0.28487369 0.1263006 1.4735089e-38
1.3065081 -0.33525485 0.12880602 1.4275193e-38
1.3101103 -0.38751084 0.12922898 1.3538705e-38
1.3149199 -0.43498433 0.13194314 1.3540152e-38
1.3162134 -0.48547363 0.1293529 1.2251219e-38
1.3177667 -0.53643584 0.12947616 1.3548834e-38
1.3156147 -0.58328199 0.12738267 1.6967316e-38
1.3269532 -0.63225341 0.12866351 1.6599613e-38
1.162441 0.73280227 0.055527296 0
1.1723394 0.72338879 0.04807898 9.1838299e-41
1.2977223 -0.20730421 0.085861415 1.6116582e-38
1.3018446 -0.24629724 0.086666018 1.5009514e-38
1.3038063 -0.28198931 0.086517602 1.5011315e-38
1.3056548 -0.33375156 0.085816175 1.4643974e-38
1.3097126 -0.38153428 0.085824102 1.3999684e-38
1.3167841 -0.43652013 0.090560645 1.3355039e-38
1.3172779 -0.4845911 0.087275356 1.2066103e-38
1.3190494 -0.53911972 0.088300854 1.4101283e-38
1.3179724 -0.58493894 0.084128946 1.5303446e-38
1.3284676 -0.6376071 0.085737139 1.5121224e-38
1.3264196 -0.66603118 0.072684258 1.3642106e-38
1.1425276 0.74747711 0.035297301 0
1.1409478 0.70622075 0.020009961 4.7891421e-39
1.1462827 0.64821035 0.018001582 9.3024078e-39
1.1523788 0.60277772 0.018383291 9.4860787e-39
1.1588104 0.55010313 0.01946583 1.077538e-38
1.1632159 0.50097382 0.016940918 1.1603703e-38
1.1717582 0.45454592 0.014300313 1.2432019e-38
1.1706038 0.40175143 0.01426151 1.2707529e-38
1.1806152 0.34978116 0.016993668 1.2983034e-38
1.1837251 0.30027431 0.018584993 1.2706446e-38
1.1925764 0.25170213 0.018872228 1.3904268e-38
1.1961262 0.20248336 0.020070579 1.4734393e-38
1.2024319 0.15517631 0.021064308 1.4457441e-38
1.2092867 0.10718708 0.020987894 1.4733312e-38
1.2150722 0.055458747 0.021184351 1.5839661e-38
1.2229149 0.0042361841 0.021441545 1.574746e-38
1.225554 -0.049990781 0.021572378 1.5932579e-38
1.2270372 -0.095974572 0.021708634 1.6393194e-38
1.2335265 -0.14437398 0.021872666 1.5565239e-38
1.2425456 -0.19318715 0.020529117 1.4367779e-38
1.2447515 -0.24378386 0.022964563 1.4276303e-38
1.2542093 -0.29240066 0.022501793 1.4000796e-38
1.2577021 -0.3411825 0.023364391 1.3172121e-38
1.2566676 -0.38781101 0.027044918 1.2343441e-38
1.2695947 -0.44215578 0.023791578 1.2068292e-38
1.2707992 -0.4937849 0.023141053 1.1424356e-38
1.2827213 -0.54498792 0.020215776 1.1240691e-38
1.2869692 -0.59326875 0.021735873 1.1333252e-38
1.2971935 -0.67215711 0.022211041 8.3851486e-39
1.126339 0.53693968 0.012433555 1.0775028e-38
1.1318603 0.50487268 0.011770871 1.1604056e-38
1.1385698 0.44544077 0.012732115 1.243238e-38
1.1451092 0.395316 0.011128452 1.3352533e-38
1.1497557 0.34930906 0.014080133 1.3628407e-38
1.1521199 0.30114153 0.016769197 1.3628049e-38
1.1577141 0.24822763 0.017860975 1.3535491e-38
1.1657813 0.19772443 0.017207887 1.4642917e-38
1.1707842 0.1504001 0.01818439 1.4271978e-38
1.1739385 0.10282316 0.020331468 1.4918055e-38
1.1808095 0.050190531 0.019004967 1.5286483e-38
1.1904812 -0.0042911544 0.017431583 1.5470163e-38
1.1918535 -0.05233141 0.018392112 1.6025129e-38
1.1961532 -0.096298665 0.018115427 1.5196091e-38
1.2009525 -0.14653605 0.019469824 1.5841826e-38
1.210645 -0.19854105 0.01842704 1.4920592e-38
1.2135019 -0.2483232 0.020454671 1.4645448e-38
1.2193313 -0.29796711 0.021739986 1.3724215e-38
1.2246068 -0.34618118 0.021481838 1.2896255e-38
1.2310355 -0.39347142 0.022706177 1.2343441e-38
1.2336483 -0.44411519 0.019213047 1.1791349e-38
1.2449176 -0.4967792 0.019134548 1.1424003e-38
1.2457347 -0.54568285 0.018949177 1.1609476e-38
1.2529571 -0.59329182 0.020062234 1.114994e-38
1.2625058 -0.64105451 0.019046154 1.0412376e-38
1.2818408 -0.66784537 0.019811239 1.1335769e-38
1.2518301 0.74447316 0.12101284 2.761913e-39
1.2560511 0.71512765 0.1223748 8.7495773e-39
1.2665722 0.66799557 0.12244728 9.9459499e-39
1.2703602 0.61573547 0.12066796 1.1050498e-38
1.2747781 0.56674236 0.12220302 1.1510399e-38
1.2783258 0.51649481 0.12460175 1.1877022e-38
1.2823858 0.46724981 0.12209609 1.2245081e-38
1.2832086 0.416457 0.12392864 1.2981565e-38
1.2845795 0.36650804 0.12139824 1.3533655e-38
1.2884436 0.31696498 0.12307534 1.4639287e-38
1.2903957 0.27058455 0.12182513 1.4731115e-38
1.2903981 0.22717679 0.12310496 1.5930023e-38
1.2409856 0.74523956 0.076896459 1.4715301e-39
1.2535582 0.71586823 0.077986211 7.4584727e-39
1.2662044 0.65781212 0.084329516 9.6697245e-39
1.2691693 0.61476624 0.08258155 1.0958307e-38
1.2771556 0.55852032 0.084784776 1.2154332e-38
1.2802105 0.51188099 0.08635059 1.2153967e-38
1.2837424 0.46350014 0.086546332 1.2336914e-38
1.2868559 0.41466093 0.087850124 1.2704622e-38
1.2881453 0.36546314 0.086671144 1.3164157e-38
1.2909753 0.31460801 0.085427791 1.436306e-38
1.290858 0.26587334 0.086135179 1.4546366e-38
1.2928934 0.21734414 0.085571676 1.5284294e-38
1.2930491 0.16902846 0.08749792 1.5191014e-38
1.2939954 0.11867876 0.093349487 1.5836744e-38
1.2965107 0.070212416 0.091333777 1.6573228e-38
1.2935138 0.015813738 0.08822915 1.6297363e-38
1.2970264 -0.035806835 0.087036461 1.6758704e-38
1.2951632 -0.080045849 0.088579327 1.6667589e-38
1.2998207 -0.12410125 0.089488477 1.6484631e-38
1.2091775 0.74724877 0.054030981 0
1.2077777 0.71403372 0.036635485 3.5913178e-39
1.2149863 0.65849829 0.023791935 8.7492368e-39
1.220474 0.60641479 0.024351444 9.5782758e-39
1.2300634 0.55575371 0.023550835 9.8530676e-39
1.2377663 0.50922334 0.022301879 1.123528e-38
1.2413659 0.45674014 0.019320276 1.1694459e-38
1.24667 0.40656945 0.02035543 1.2614611e-38
1.2519739 0.3563987 0.021390703 1.3259979e-38
1.2554693 0.31090456 0.023071732 1.3259623e-38
1.2629097 0.26124561 0.022859182 1.3906067e-38
1.2699499 0.20625573 0.023301151 1.3627684e-38
1.2819364 0.15691996 0.037059214 1.5193202e-38
1.2883844 0.1171171 0.047002938 1.5561969e-38
1.2935839 0.065314241 0.047544327 1.5284662e-38
1.2958744 0.015847124 0.048451867 1.436343e-38
1.2983329 -0.033385798 0.049464609 1.4364154e-38
1.2997615 -0.085610159 0.054954495 1.5377945e-38
1.3023789 -0.13661507 0.055332925 1.4826211e-38
1.303184 -0.18584543 0.057866242 1.4181201e-38
1.3057959 -0.2353605 0.058155324 1.3720584e-38
1.3086336 -0.28771105 0.057037797 1.4274838e-38
1.3111746 -0.33853453 0.054447141 1.4367034e-38
1.314121 -0.38980809 0.056770172 1.3353957e-38
1.3202505 -0.43665493 0.061655905 1.3169928e-38
1.3230624 -0.48959255 0.058794823 1.1789156e-38
1.3222988 -0.53536087 0.058969405 1.2159026e-38
1.3202834 -0.57980704 0.058026697 1.2805121e-38
1.3258035 -0.63202077 0.059103992 1.1792402e-38
1.1829088 0.69645923 0.01795831 8.1975021e-39
1.1852679 0.65817595 0.020257976 8.6577586e-39
1.1928964 0.60241163 0.023657884 9.4864403e-39
1.2000611 0.55120569 0.021816935 9.9456234e-39
1.2052703 0.50478518 0.019447591 1.1510791e-38
1.2150207 0.45442629 0.016342726 1.2339822e-38
1.2144377 0.40626684 0.0150319 1.2430215e-38
1.223084 0.36092174 0.018712547 1.2798999e-38
1.2267122 0.31013685 0.02076694 1.2706445e-38
1.2342107 0.26037192 0.022055652 1.3536568e-38
1.2384639 0.21171096 0.022021558 1.4733672e-38
1.2455938 0.16175836 0.023536768 1.4917702e-38
1.2497895 0.11217072 0.025160756 1.4641831e-38
1.2586474 0.063035689 0.024071898 1.5009898e-38
1.2656381 0.010834195 0.022738662 1.5747468e-38
1.2651844 -0.036266513 0.024458256 1.5564153e-38
1.2713761 -0.089177296 0.023445096 1.4919147e-38
1.2769592 -0.13870022 0.024264302 1.4736559e-38
1.2821932 -0.18822172 0.025283661 1.4368498e-38
1.2901349 -0.23819745 0.024755623 1.3632374e-38
1.2929516 -0.28733626 0.027146425 1.2710779e-38
1.3011034 -0.33918858 0.026666906 1.2159049e-38
1.3043718 -0.39346385 0.027309325 1.0500971e-38
1.3085573 -0.44062287 0.026804592 1.0225824e-38
1.3122153 -0.48785049 0.026674058 1.0224726e-38
1.3185155 -0.53972787 0.02827343 1.1145957e-38
1.3162179 -0.58894867 0.032571163 1.0500947e-38
1.3180344 -0.64093536 0.030980375 1.0041411e-38
1.3243048 -0.67381227 0.032353844 1.0133601e-38
1.25825 0.71043354 0.046228614 6.9971373e-39
1.2678695 0.66688228 0.051086333 8.2871614e-39
1.2768073 0.61341804 0.047680344 1.0129282e-38
1.2841017 0.56621492 0.048792507 1.0588815e-38
1.287591 0.51653928 0.048873153 1.0495899e-38
1.2866137 0.46579075 0.052547541 1.0587006e-38
1.2912409 0.41787404 0.052124288 1.2244367e-38
1.2946484 0.36532244 0.049428489 1.3349632e-38
1.2974603 0.31689212 0.049168434 1.417831e-38
1.297606 0.26205492 0.050006833 1.4269422e-38
1.2346921 0.73605442 0.024029102 5.5101578e-40
1.2484753 0.71309072 0.022566881 5.432715e-39
1.2547095 0.66262358 0.025348749 8.5648455e-39
1.258682 0.61156809 0.025997546 9.8548641e-39
1.271874 0.56365591 0.023772504 1.0499515e-38
1.2761629 0.51375127 0.023112085 1.0959048e-38
1.2788007 0.46337533 0.021366145 1.1510781e-38
1.2837505 0.41414949 0.021628764 1.1787008e-38
1.2861264 0.36513758 0.025045302 1.1970683e-38
1.292273 0.31427336 0.025681224 1.2523502e-38
1.2939825 0.26228654 0.028793719 1.2154358e-38
1.2958982 0.21062613 0.031778362 1.3535851e-38
1.2974746 0.16645122 0.032058861 1.2799005e-38
1.3002975 0.11842044 0.03079715 1.1509349e-38
1.3023388 0.071727358 0.030861046 1.1232041e-38
1.3011432 0.026161671 0.02599832 1.1694101e-38
1.3090215 -0.075471997 0.023869243 9.8520068e-39
-0.17036617 -0.96861613 0.16000932 3.9636932e-39
-0.16892007 -0.96383893 0.14962164 3.4112355e-39
-0.17909627 -1.0265338 0.148563 4.1480859e-39
-0.16740511 -1.011358 0.11336821 3.8718549e-39
-0.17501241 -1.0175705 0.12927169 3.9633317e-39
-0.18483593 -1.0891244 0.18644896 9.2181211e-39
-0.17805891 -1.069646 0.15091044 6.0834696e-39
-0.16075619 -1.0380678 0.095959157 4.1484418e-39
-0.16735975 -1.0521547 0.11684009 4.6090598e-39
-0.15332988 -1.0570837 0.072280675 4.516867e-39
-0.18830772 -1.1639017 0.22713381 9.4010662e-39
-0.18092199 -1.1250609 0.18360069 1.0416303e-38
-0.18557906 -1.1429716 0.205598 1.0047517e-38
-0.17011367 -1.1130459 0.14183882 1.0692888e-38
-0.15705639 -1.0901121 0.094738066 8.4798329e-39
-0.14415255 -1.0840091 0.054241329 7.6500723e-39
-0.1482733 -1.0898379 0.065035164 8.4805504e-39
-0.19225401 -1.2209862 0.26165554 8.2032447e-39
-0.1833289 -1.1988696 0.22270042 8.8482525e-39
-0.16730213 -1.1766785 0.15458313 8.5723817e-39
-0.17467681 -1.1831872 0.17953297 9.3095866e-39
-0.16174835 -1.1619201 0.12574384 8.9408055e-39
-0.14927644 -1.1389381 0.078392446 9.6787349e-39
-0.12667125 -1.1274351 0.015503583 9.2191986e-39
-0.136035 -1.1271529 0.040807933 9.6798195e-39
-0.19634382 -1.2808733 0.2957212 9.4010704e-39
-0.18526578 -1.2640479 0.24466747 9.0326452e-39
-0.19169436 -1.2682737 0.26982814 9.2166777e-39
-0.17633323 -1.2447067 0.20953494 8.7560625e-39
-0.16342331 -1.2270286 0.16056305 9.217035e-39
-0.15180802 -1.204141 0.11302269 9.4014249e-39
-0.15641896 -1.2161508 0.13507584 1.0046438e-38
-0.13870722 -1.1896453 0.064648956 9.1251995e-39
0.012723803 -1.1440129 0.026068626 8.0138017e-39
-0.11534733 -1.1628788 0.0028406661 8.7578506e-39
-0.12617838 -1.1718174 0.023752956 8.6645801e-39
1.0366918 -0.7756598 -0.016043754 9.5829253e-39
0.99501592 -0.79025269 -0.011380943 9.8584374e-39
0.9456116 -0.80426741 -0.0099532921 1.0226858e-38
0.89999056 -0.82231605 -0.011596473 1.0133945e-38
0.85674793 -0.8394798 -0.016222389 1.0317975e-38
0.80593443 -0.85455465 -0.017349424 1.1054821e-38
0.76128024 -0.87083149 -0.018367561 1.0962624e-38
0.71294349 -0.88927138 -0.020091416 1.1054097e-38
0.66415977 -0.90726888 -0.021366717 1.0408723e-38
0.63146621 -0.9191277 -0.022067638 1.0593116e-38
0.57780683 -0.93761218 -0.022476407 1.0500561e-38
0.52414745 -0.95609665 -0.022885056 1.1605823e-38
0.47874331 -0.97173738 -0.023230912 1.0315806e-38
0.42508394 -0.99022186 -0.023639651 1.0960811e-38
0.37142456 -1.0087065 -0.02404839 1.0039939e-38
0.19372207 -1.0681319 -0.024046155 9.0257844e-39
-0.20282948 -1.3469514 0.33164531 1.1521571e-38
-0.19450821 -1.3299872 0.29328102 1.0968037e-38
-0.17905402 -1.2959502 0.22272471 9.8609765e-39
-0.18145896 -1.3158524 0.24294621 1.0231194e-38
-0.16765526 -1.2951335 0.19333014 1.1613051e-38
-0.17499205 -1.3175503 0.21149629 1.1336109e-38
-0.15609561 -1.2756182 0.1467883 9.7694928e-39
-0.1406735 -1.2456483 0.089816242 9.8620443e-39
-0.14492366 -1.2630626 0.10984495 9.5858148e-39
1.0052543 -0.86127853 0.034389555 1.0226867e-38
0.96839374 -0.87626386 0.032582492 1.0040325e-38
-0.004263253 -1.1678468 0.037919939 8.1978272e-39
-0.03219942 -1.1952903 0.055337191 7.4609965e-39
-0.12806177 -1.2398053 0.051666141 1.0138991e-38
1.0559014 -0.82480776 -0.012290092 9.8587989e-39
1.0113498 -0.83468246 -0.0071045179 1.0134668e-38
0.96719313 -0.85150385 -0.0060679633 1.0133589e-38
0.91693532 -0.8684088 -0.011150094 1.0593486e-38
0.87160963 -0.88816655 -0.013977649 1.0961905e-38
0.8213439 -0.9035058 -0.015599998 1.1515432e-38
0.75471729 -0.92934597 -0.018190505 1.1883855e-38
0.7276929 -0.93630815 -0.016703876 1.1699109e-38
0.6856814 -0.95222461 -0.018065395 1.2067526e-38
0.43774056 -1.0385376 -0.020604761 1.1513264e-38
0.16359854 -1.1329736 -0.022692831 9.671158e-39
0.11422253 -1.1470488 -0.020953359 9.1176297e-39
0.056523375 -1.1570624 -0.0097036082 8.2896641e-39
0.019420918 -1.1551086 0.020107953 7.6450122e-39
-0.11454702 -1.2193992 0.010187952 9.3095908e-39
1.0918336 -0.80021608 -0.021314086 9.3059839e-39
1.0526966 -0.79636085 -0.016058089 9.2145085e-39
1.0000694 -0.81510627 -0.011736991 9.7655285e-39
0.9570871 -0.82835257 -0.012213917 1.0226498e-38
0.91048491 -0.85130584 -0.015512498 1.0594203e-38
0.85907757 -0.86424387 -0.016418161 1.0041029e-38
0.81402707 -0.87924802 -0.017060312 1.0685679e-38
0.77111667 -0.90282178 -0.01951942 1.1238491e-38
0.72109646 -0.91521776 -0.02008778 1.1329965e-38
0.67473501 -0.93608069 -0.022411795 1.1237765e-38
0.6257447 -0.94963562 -0.023810657 1.1329959e-38
0.57981092 -0.96855772 -0.022854896 1.1513989e-38
0.53583771 -0.98506391 -0.024779977 1.1144848e-38
0.48438346 -1.0023049 -0.024625869 1.0223607e-38
0.43990615 -1.0156008 -0.024382235 1.0868255e-38
0.39289173 -1.0275775 -0.02610633 1.0776421e-38
0.34216768 -1.0461738 -0.029785724 9.486401e-39
0.29618338 -1.0622821 -0.028879346 9.4864024e-39
0.2488732 -1.0782852 -0.029323043 9.7629907e-39
0.20297182 -1.0984292 -0.028035643 9.2105344e-39
0.15593024 -1.1103891 -0.029103817 9.026869e-39
0.10925964 -1.1259497 -0.028612854 8.8428365e-39
0.060010862 -1.1442624 -0.03168264 8.1056344e-39
0.012260539 -1.1597153 -0.031080129 7.5517404e-39
-0.035021044 -1.1795315 -0.032895744 6.3546405e-39
-0.081890903 -1.1944587 -0.034687221 8.6642186e-39
-0.11001919 -1.2063084 -0.03349787 8.5727432e-39
-0.20824 -1.4569807 0.42937651 9.9545987e-39
-0.21021491 -1.4242861 0.3629187 9.585463e-39
-0.19971259 -1.3841519 0.31487852 1.0692167e-38
-0.20443557 -1.4115211 0.33238876 1.0137917e-38
-0.1870271 -1.3810383 0.27257639 1.1060234e-38
-0.19434614 -1.4159802 0.29173332 9.8634905e-39
-0.17472352 -1.3587757 0.2293815 1.2535727e-38
-0.16093987 -1.3347114 0.17833158 1.2535723e-38
-0.16284096 -1.3607312 0.18633673 1.2259136e-38
-0.14756995 -1.3248918 0.1317029 1.1798158e-38
-0.12888274 -1.2808874 0.075340688 9.2177483e-39
-0.13185945 -1.3076216 0.084943891 9.2173924e-39
-0.11486199 -1.2838769 0.035503983 9.4014249e-39
1.1497437 -0.84759772 -0.021250488 9.1205192e-39
1.1163769 -0.84404528 -0.016667457 9.8587989e-39
1.0730821 -0.85479116 -0.011551173 1.0319058e-38
1.0266397 -0.87335253 -0.0099853892 1.0318698e-38
0.97448885 -0.88815284 -0.0073007066 1.1054824e-38
0.9285388 -0.90394604 -0.010646017 1.0686039e-38
0.87896216 -0.92090034 -0.012214961 1.1238494e-38
0.83257025 -0.93434548 -0.015618475 1.1238495e-38
0.78651828 -0.95328653 -0.017789753 1.1329968e-38
0.73680818 -0.96740425 -0.016622128 1.1329606e-38
0.69130075 -0.97943878 -0.017325403 1.1698027e-38
0.64488637 -0.99742663 -0.017954202 1.1421439e-38
0.59755671 -1.0169282 -0.021702768 1.1144848e-38
0.55127156 -1.0376095 -0.025380643 1.151291e-38
0.50275594 -1.054127 -0.02558759 1.0867538e-38
0.45841199 -1.0684353 -0.02524543 1.0038496e-38
0.41125736 -1.0889226 -0.028580876 1.1143762e-38
0.36224666 -1.108668 -0.023307355 1.0959373e-38
0.31791446 -1.1175287 -0.021190466 9.9463002e-39
0.26739576 -1.1311847 -0.026111336 9.8548248e-39
0.21955082 -1.1534452 -0.029645385 9.4864024e-39
0.17602561 -1.1694012 -0.029209616 1.0685673e-38
0.12945123 -1.1833812 -0.029639544 1.0317608e-38
0.078657977 -1.1986607 -0.030056419 8.1052729e-39
0.036211781 -1.2230099 -0.032152414 8.1981874e-39
-0.019803062 -1.2334653 -0.030564578 7.4595489e-39
-0.062179908 -1.2578813 -0.033608764 8.4780295e-39
-0.10078084 -1.2725259 -0.01681939 9.1251981e-39
0.63493699 -0.97963524 -0.025612237 1.1789501e-38
0.58313757 -0.99747884 -0.02600682 1.1145568e-38
0.5356546 -1.0138357 -0.026368471 1.1144485e-38
0.50399947 -1.0247403 -0.026609572 9.854106e-39
0.39831445 -1.0638549 -0.029367449 1.1328156e-38
0.35489288 -1.0867162 -0.031323403 1.0590951e-38
0.30753043 -1.0954287 -0.030275824 9.5782379e-39
0.26370743 -1.1075157 -0.028439822 9.4860465e-39
0.21190794 -1.1253595 -0.028834345 9.5785967e-39
0.14824101 -1.157679 -0.031377822 8.6584509e-39
0.017548688 -1.1953214 -0.032484591 7.8297608e-39
-0.022096328 -1.2068717 -0.031267643 7.2751577e-39
-0.068194725 -1.2317859 -0.035016328 7.8333761e-39
-0.099357069 -1.2464933 -0.036879867 8.8493259e-39
-0.20595053 -1.4657925 0.39791888 9.0326494e-39
-0.19649622 -1.4665644 0.35457656 9.5847442e-39
-0.1740163 -1.4628962 0.29168653 1.096768e-38
-0.1900944 -1.4571499 0.3075861 9.76949e-39
-0.18088262 -1.4264256 0.25683424 8.8482567e-39
-0.1865304 -1.4411162 0.27560723 9.3092321e-39
-0.16870457 -1.4135985 0.2146149 1.2166942e-38
-0.15334482 -1.3649838 0.15334645 1.0691453e-38
-0.15520665 -1.4007146 0.16761956 1.1797801e-38
-0.13924393 -1.3701645 0.1186046 1.2074745e-38
-0.14837831 -1.3889804 0.14017215 1.1336098e-38
-0.12351634 -1.3557593 0.071684182 9.7694886e-39
0.49523681 -1.1145146 0.012083618 1.2339792e-38
-0.10354253 -1.3265206 0.025104253 9.8616814e-39
-0.1114367 -1.3534307 0.044123799 1.0323381e-38
1.1739895 -0.87975252 -0.018652381 1.0042833e-38
1.136184 -0.88384926 -0.012723478 1.0043552e-38
1.0884633 -0.90753269 -0.010875406 1.0133952e-38
1.0416707 -0.93415475 -0.016069593 1.0686406e-38
0.99622649 -0.95036578 -0.01851997 1.0961911e-38
0.94774765 -0.95768797 -0.017085643 1.059313e-38
0.89988333 -0.9732151 -0.016795488 1.169948e-38
0.85284764 -0.98947859 -0.019510778 1.1607284e-38
0.80405462 -1.0070604 -0.020676019 1.1146665e-38
0.75854123 -1.0175214 -0.022361698 9.8548458e-39
0.70693189 -1.0356051 -0.022917034 1.2251927e-38
0.6607973 -1.0508797 -0.023322763 1.1605833e-38
0.61244613 -1.0643085 -0.025503786 1.17895e-38
0.56456411 -1.0790159 -0.023965122 1.1973166e-38
0.51846159 -1.1006777 -0.020231696 1.1879892e-38
0.47455856 -1.1125174 -0.026335211 1.1051207e-38
0.42621425 -1.1303629 -0.028175535 1.1142684e-38
0.38011667 -1.1492438 -0.029898914 1.0683145e-38
0.32605127 -1.1735357 -0.03164953 1.1513627e-38
0.28463984 -1.1819136 -0.033087641 1.160583e-38
0.2373354 -1.1939702 -0.029929819 1.0777507e-38
0.1881398 -1.2127028 -0.029550435 1.0131056e-38
0.13985774 -1.2321219 -0.033190757 9.947382e-39
0.094189204 -1.2433232 -0.032767683 1.004139e-38
0.047998019 -1.2601697 -0.030786039 8.7502906e-39
0.0037409021 -1.2841879 -0.030730607 8.2896655e-39
-0.049794912 -1.2922603 -0.031471789 8.2003594e-39
-0.088639811 -1.3098902 -0.032117993 9.2173938e-39
-0.1665871 -1.4677705 0.28362221 1.0782208e-38
-0.17500688 -1.4691602 0.28942984 1.0321588e-38
-0.16497645 -1.4615985 0.24542117 1.0137554e-38
-0.17781478 -1.4634274 0.26027021 9.9538854e-39
-0.15181401 -1.4547802 0.20146242 1.1243905e-38
-0.14301574 -1.4461071 0.15294722 1.2166222e-38
-0.12814632 -1.4176387 0.099889636 1.1060232e-38
-0.13861375 -1.4269108 0.12276098 1.2259496e-38
-0.11300205 -1.3989842 0.056949466 1.0414498e-38
1.1772659 -0.95461154 -0.007537337 1.2257331e-38
1.1006143 -0.9810164 -0.0081211943 1.1149197e-38
-0.097042419 -1.3678703 0.01578 1.0322298e-38
-0.099574886 -1.3823106 0.028318075 1.0322665e-38
1.2329427 -0.92395818 -0.023030998 9.5814946e-39
1.2034104 -0.92608845 -0.016730459 1.0227224e-38
1.1487175 -0.93828809 -0.011339577 1.0687483e-38
1.1034136 -0.95428014 -0.011923881 1.2440288e-38
1.0563599 -0.96820462 -0.015101643 1.1425417e-38
1.0088412 -0.99043238 -0.01777214 1.2346297e-38
0.96258181 -1.0056027 -0.017624052 1.2161179e-38
0.91853672 -1.0213338 -0.019994976 1.1883147e-38
0.86536735 -1.0326589 -0.018864037 1.2159011e-38
0.82168293 -1.0545826 -0.019821556 1.2435235e-38
0.77081305 -1.0637107 -0.022576721 1.3541948e-38
0.72705066 -1.0814615 -0.024668606 1.2896939e-38
0.67814034 -1.096064 -0.025481941 1.2528153e-38
0.63254011 -1.1097665 -0.025483461 1.3264998e-38
0.58637387 -1.1264782 -0.024916859 1.2434869e-38
0.54849154 -1.1439762 -0.026645692 1.2340508e-38
0.48904124 -1.1562537 -0.025483819 1.206392e-38
0.4456394 -1.1759617 -0.029990496 1.0957933e-38
0.39624792 -1.198302 -0.031009616 1.3078795e-38
0.35009554 -1.2115964 -0.032590657 1.1419991e-38
0.30147326 -1.2314763 -0.032966822 1.1327075e-38
0.25402442 -1.2469579 -0.032788962 1.1235961e-38
0.20631722 -1.2599025 -0.030871244 1.0591314e-38
0.16102463 -1.2763553 -0.031764925 1.0867543e-38
0.11203461 -1.2941569 -0.032748759 1.0038863e-38
0.063223913 -1.3090827 -0.03189376 9.9488323e-39
0.016180318 -1.3225142 -0.029645981 9.027239e-39
-0.02787235 -1.3436852 -0.030832054 7.4599119e-39
-0.076465361 -1.3613108 -0.031005116 1.0415936e-38
-0.10180067 -1.3797017 -0.024810584 9.0330039e-39
1.3346876 -1.2409052 0.99452525 1.0414501e-38
1.3399333 -1.2214891 0.97659487 1.1708119e-38
1.3093541 -1.2465941 0.9843902 1.3088893e-38
1.3553677 -1.2251645 0.91104841 1.5204331e-38
1.3535352 -1.2138269 0.86961061 1.547876e-38
1.3464572 -1.199319 0.8205871 1.5478405e-38
1.3387908 -1.1824762 0.77046412 1.5202901e-38
1.3370712 -1.1703961 0.72020453 1.4927042e-38
1.3428322 -1.1602298 0.6694355 1.4465355e-38
1.3358743 -1.145058 0.62450451 1.4558272e-38
1.3275827 -1.1331046 0.58395678 1.5019607e-38
1.3262724 -1.1181455 0.53183848 1.5203284e-38
1.3244953 -1.1092964 0.4819321 1.483523e-38
1.3221713 -1.0950147 0.43255514 1.520944e-38
1.3168961 -1.0783643 0.37207508 1.7979995e-38
1.3146982 -1.0714264 0.34687501 1.8717558e-38
-0.11870911 -1.4523363 0.12520915 1.1059511e-38
-0.12946396 -1.4605223 0.1397928 1.1612688e-38
-0.11360381 -1.4519987 0.092762709 1.078292e-38
-0.12919034 -1.4529594 0.11535224 1.1889988e-38
-0.10265667 -1.4333129 0.050524086 1.013791e-38
1.2592633 -0.96949959 -0.0099624116 1.0872595e-38
1.2170509 -0.97663951 -0.011210384 1.1888917e-38
1.1652397 -0.98838747 -0.013263764 1.1795287e-38
1.1218444 -1.0020689 -0.012771996 1.1055914e-38
1.0758682 -1.0256919 -0.016547473 1.169984e-38
1.0286314 -1.0412464 -0.018894495 1.2067179e-38
0.98596859 -1.0584654 -0.018775912 1.2067533e-38
0.93414277 -1.0772456 -0.019740792 1.2066099e-38
0.88700944 -1.0947286 -0.020467194 1.2157933e-38
0.84433013 -1.1105437 -0.021476449 1.234232e-38
0.79709911 -1.1232893 -0.019669684 1.3079522e-38
0.76018256 -1.1365037 -0.022649648 1.3816008e-38
0.60284793 -1.1907021 -0.023847999 1.2711091e-38
0.56351423 -1.2042518 -0.024147632 1.2804729e-38
0.49468037 -1.2279634 -0.024671914 1.7412717e-38
0.48484698 -1.231351 -0.024746837 1.6214174e-38
0.0079263961 -1.3956398 -0.028379353 1.0133228e-38
-0.065824151 -1.4210452 -0.028941127 1.0784003e-38
-0.090067901 -1.4306232 -0.015737148 9.9538784e-39
1.2424698 -0.93991029 -0.017697962 1.050381e-38
1.2243775 -0.9541142 -0.016985388 1.096443e-38
1.0632861 -1.0064181 -0.018552544 1.160765e-38
1.0212954 -1.0248121 -0.018993797 1.142217e-38
0.9813996 -1.0440611 -0.022729965 1.1422169e-38
0.9257555 -1.0508415 -0.018756958 1.2159015e-38
0.8846252 -1.0699853 -0.022308381 1.1974262e-38
0.83967775 -1.0861372 -0.021545054 1.215829e-38
0.7892819 -1.1075858 -0.024608793 1.335575e-38
0.73938709 -1.1249406 -0.024744274 1.2249403e-38
0.69654024 -1.1473824 -0.028033974 1.2433072e-38
0.64611584 -1.1611735 -0.026190611 1.243271e-38
0.59566939 -1.1779747 -0.026223721 1.3724527e-38
0.54805851 -1.1950854 -0.029384913 1.2524901e-38
0.50582516 -1.2086219 -0.027796837 1.2523816e-38
0.46015808 -1.2249537 -0.03111616 1.2801124e-38
0.41334093 -1.2460457 -0.030894043 1.2340147e-38
0.36461926 -1.263695 -0.031796813 1.1971363e-38
0.31581804 -1.2812439 -0.03263858 1.1971727e-38
0.26739252 -1.2925022 -0.030478867 1.1050132e-38
0.22241569 -1.31033 -0.03142336 1.0498758e-38
0.17276305 -1.3265928 -0.033460557 1.0683149e-38
0.1242957 -1.3401963 -0.032683492 1.0315448e-38
0.080744766 -1.3590773 -0.032460451 9.4860437e-39
0.034049135 -1.3737845 -0.031112315 9.580047e-39
-0.016024213 -1.3864971 -0.030502768 8.2903914e-39
-0.061817087 -1.4027172 -0.031959355 9.9535225e-39
-0.094235785 -1.4101989 -0.028182687 1.02301e-38
1.3669893 -1.2890611 1.003511 1.3086714e-38
1.3409072 -1.305204 0.99118614 1.4929912e-38
1.3619022 -1.2690508 0.95918941 1.1243538e-38
1.3529431 -1.2596124 0.90881723 1.5112137e-38
1.3457034 -1.2424966 0.85774523 1.5940814e-38
1.3445287 -1.2305857 0.80957371 1.6400713e-38
1.3400843 -1.2213266 0.75981623 1.6585467e-38
1.3423612 -1.2051116 0.71291214 1.6032658e-38
1.339267 -1.1852294 0.66767544 1.5847912e-38
1.3374108 -1.17803 0.61603206 1.5663524e-38
1.3349015 -1.1640539 0.56922501 1.5110714e-38
1.3346074 -1.1480733 0.52229363 1.4742656e-38
1.3306667 -1.1340501 0.47002792 1.4558629e-38
1.3290844 -1.1193482 0.42569634 1.4744107e-38
1.3237572 -1.1030198 0.38149202 1.4838838e-38
1.3204466 -1.0870383 0.32929468 1.6133191e-38
1.3168867 -1.0777967 0.28445053 1.6594888e-38
1.3280027 -1.0610377 0.23063046 1.7517932e-38
1.3173356 -1.0716718 0.23642576 1.6687804e-38
1.3249726 -1.0491456 0.18394482 1.6964391e-38
1.3202784 -1.0621802 0.18188649 1.7056944e-38
1.3239311 -1.0406047 0.13173679 1.631794e-38
1.3171546 -1.046177 0.13963813 1.6410857e-38
1.3199748 -1.0298568 0.089599043 1.5025036e-38
1.3146768 -1.0294096 0.065125555 1.1606913e-38
1.3172594 -1.0191184 0.03677997 1.0041752e-38
1.3130597 -1.0084987 -0.0015406329 9.6780244e-39
1.28131 -0.99913323 -0.014146211 1.0966961e-38
1.230004 -1.015258 -0.012395056 1.0872238e-38
1.1866049 -1.0368285 -0.014001967 1.1147385e-38
1.1383132 -1.0502611 -0.016330214 1.1238503e-38
1.0929719 -1.0684202 -0.019835057 1.1790957e-38
1.0429242 -1.0797008 -0.021038773 1.2067181e-38
0.99428636 -1.0942304 -0.0200924 1.2343408e-38
0.94883484 -1.1136632 -0.021831067 1.1973905e-38
0.90148562 -1.1303085 -0.022255452 1.2710747e-38
0.85399324 -1.1467999 -0.022831859 1.3171003e-38
0.80670965 -1.1686915 -0.026465716 1.2894772e-38
0.76089716 -1.1797357 -0.026786329 1.3446866e-38
0.713772 -1.198459 -0.026763411 1.3169916e-38
0.66636318 -1.2131182 -0.027049663 1.3077e-38
0.61874676 -1.2306507 -0.028034629 1.2524182e-38
0.56969571 -1.2477458 -0.027656527 1.3814922e-38
0.5238539 -1.2626216 -0.027458074 1.4091516e-38
0.47889224 -1.2735282 -0.029492827 1.2799687e-38
0.42867652 -1.2958574 -0.029329957 1.2614937e-38
0.38339055 -1.3135492 -0.031164588 1.2707487e-38
0.33819583 -1.3242767 -0.031947345 1.2155038e-38
0.28873298 -1.3443887 -0.031595141 1.1602586e-38
0.24024552 -1.3567117 -0.032348484 1.08661e-38
0.19171689 -1.3727211 -0.031068178 1.1234884e-38
0.14697194 -1.3885564 -0.031051429 1.0498398e-38
0.097350232 -1.4095601 -0.031643748 1.031509e-38
0.050529853 -1.4257817 -0.031122627 9.6704406e-39
0.0012797965 -1.4388335 -0.030022772 9.3945796e-39
-0.044940043 -1.4587969 -0.031053634 9.5822162e-39
-0.083360486 -1.4714099 -0.027330579 1.0230105e-38
1.2879018 -0.97326446 -0.030032935 9.8588003e-39
0.14679162 -1.3663523 -0.038724452 1.0683511e-38
1.3636969 -1.3192185 1.0187514 1.4652593e-38
1.3571717 -1.3542053 1.0170839 1.5388353e-38
1.3562808 -1.3138006 0.99260277 1.5023911e-38
1.3536335 -1.340694 0.98675585 1.5482368e-38
1.3548697 -1.3012482 0.94571477 1.4097267e-38
1.3511196 -1.3266561 0.94036472 1.4927025e-38
1.3510003 -1.2908301 0.89881468 1.5111058e-38
1.348011 -1.313217 0.89117128 1.5939378e-38
1.3463095 -1.277284 0.85168153 1.566351e-38
1.3463079 -1.3029052 0.84587604 1.6030496e-38
1.3466749 -1.2700707 0.79826945 1.6584387e-38
1.3464048 -1.2956402 0.80057794 1.6122691e-38
1.3463939 -1.2655388 0.74852115 1.7044646e-38
1.3428459 -1.2840246 0.74530393 1.6859538e-38
1.3424938 -1.2474006 0.69948143 1.6952811e-38
1.3397973 -1.2705743 0.70263219 1.6491838e-38
1.3418206 -1.2357626 0.6510886 1.6675869e-38
1.3394898 -1.2266686 0.60474044 1.6675511e-38
1.3323406 -1.2470379 0.61714065 1.6491112e-38
1.338111 -1.2083298 0.55409539 1.6214534e-38
1.338551 -1.1976399 0.50759161 1.6030143e-38
1.3382719 -1.1817013 0.46158031 1.5293661e-38
1.3374119 -1.167582 0.4125624 1.4556817e-38
1.3346878 -1.1542385 0.36600453 1.3912168e-38
1.3325146 -1.1384449 0.31475198 1.3359356e-38
1.3274993 -1.1279444 0.26764628 1.3083131e-38
1.3226166 -1.1086863 0.21723118 1.2992387e-38
1.3189532 -1.093328 0.17332113 1.3824681e-38
0.024036124 -1.5580255 0.13556984 1.5574215e-38
-0.002483231 -1.5710434 0.1336529 1.1148466e-38
-0.070249595 -1.5832249 0.13806722 2.7619018e-39
1.3261254 -1.061435 0.10721552 1.6226464e-38
1.3182392 -1.0780221 0.12731317 1.5026472e-38
0.022191107 -1.5508268 0.11472392 1.456006e-38
-0.01387597 -1.5566555 0.11044702 8.6581019e-39
-0.05498882 -1.5683864 0.11361957 5.9862279e-39
1.3253648 -1.0514593 0.082117796 1.4842796e-38
1.3164462 -1.071776 0.073418081 1.2809433e-38
0.013971793 -1.5489769 0.080112219 1.3177124e-38
-0.019724168 -1.5488801 0.065678149 7.6432297e-39
-0.055176076 -1.5597819 0.062607735 8.1989244e-39
1.3144984 -1.0551476 0.028693644 9.9488295e-39
-0.032539248 -1.5410004 0.030060528 6.3524895e-39
-0.049186483 -1.5507957 0.021590708 1.0413063e-38
1.3160598 -1.029664 -0.0081858356 8.3858465e-39
1.3026927 -1.0485111 -0.013424577 9.3070783e-39
1.2498709 -1.0667819 -0.014713319 1.0962997e-38
1.202238 -1.0843277 -0.015883835 1.1606926e-38
1.1544095 -1.0998708 -0.019906105 1.1515087e-38
1.1063198 -1.1192906 -0.019617291 1.188315e-38
1.0596329 -1.1319489 -0.019947948 1.2066462e-38
1.0148 -1.1529059 -0.020551683 1.225085e-38
0.96481872 -1.1630244 -0.019758524 1.2618913e-38
0.91525233 -1.1755587 -0.020601751 1.2987334e-38
0.8723253 -1.2016574 -0.022432091 1.3170286e-38
0.82614714 -1.2160167 -0.02646354 1.3262476e-38
0.77317888 -1.231024 -0.029175462 1.3907126e-38
0.72926933 -1.2472667 -0.029740872 1.3815287e-38
0.68242794 -1.2647325 -0.030479731 1.3445781e-38
0.63608646 -1.2802272 -0.02888477 1.3905679e-38
0.58773708 -1.2932016 -0.027148606 1.3905677e-38
0.54006046 -1.3073263 -0.026202114 1.3997507e-38
0.49146456 -1.3230677 -0.031257838 1.3075192e-38
0.44540426 -1.3427579 -0.030597599 1.2891161e-38
0.39946425 -1.3595618 -0.031132938 1.2891521e-38
0.34683797 -1.3710792 -0.032218069 1.2430906e-38
0.30202299 -1.3914019 -0.030412735 1.2063201e-38
0.25381818 -1.4074483 -0.035409808 1.1325998e-38
0.20776346 -1.4196742 -0.032695293 1.1418915e-38
0.15903643 -1.4386531 -0.033047497 1.1327441e-38
0.11480368 -1.457624 -0.033291936 1.1235966e-38
0.065534659 -1.4776093 -0.031636178 1.0498764e-38
0.01892091 -1.4917308 -0.029814037 9.4864109e-39
-0.027896725 -1.5085561 -0.028487982 9.6729629e-39
-0.072622389 -1.5241324 -0.029012145 1.0966953e-38
-0.10122998 -1.545084 -0.034538686 9.5858162e-39
1.3580495 -1.4048157 1.0161719 1.5755338e-38
1.3553636 -1.3876568 0.97588724 1.5202887e-38
1.3536044 -1.3750039 0.9262715 1.603157e-38
1.3515944 -1.3646897 0.87621373 1.6768417e-38
